1152.000000 1088.000000 -952.000000
1150.102633 1088.000000 -951.367544
1148.205267 1088.000000 -950.735089
1146.307900 1088.000000 -950.102633
1144.410534 1088.000000 -949.470178
1142.513167 1088.000000 -948.837722
1140.615800 1088.000000 -948.205267
1138.718434 1088.000000 -947.572811
1136.821067 1088.000000 -946.940356
1134.923701 1088.000000 -946.307900
1133.026334 1088.000000 -945.675445
1131.128967 1088.000000 -945.042989
1129.231601 1088.000000 -944.410534
1127.334234 1088.000000 -943.778078
1125.436868 1088.000000 -943.145623
1123.539501 1088.000000 -942.513167
1121.642134 1088.000000 -941.880711
1119.744768 1088.000000 -941.248256
1117.847401 1088.000000 -940.615800
1115.950035 1088.000000 -939.983345
1114.052668 1088.000000 -939.350889
1112.155301 1088.000000 -938.718434
1110.257935 1088.000000 -938.085978
1108.360568 1088.000000 -937.453523
1106.463202 1088.000000 -936.821067
1104.000000 1088.000000 -936.000000
1102.674766 1086.509112 -936.144947
1101.349533 1085.018225 -936.289895
1100.024299 1083.527337 -936.434842
1098.699066 1082.036449 -936.579790
1097.373832 1080.545561 -936.724737
1096.048599 1079.054674 -936.869685
1094.723365 1077.563786 -937.014632
1093.398132 1076.072898 -937.159579
1092.072898 1074.582010 -937.304527
1090.747664 1073.091123 -937.449474
1089.422431 1071.600235 -937.594422
1088.097197 1070.109347 -937.739369
1086.771964 1068.618459 -937.884316
1085.446730 1067.127572 -938.029264
1084.121497 1065.636684 -938.174211
1082.796263 1064.145796 -938.319159
1081.471030 1062.654908 -938.464106
1080.145796 1061.164021 -938.609054
1078.820562 1059.673133 -938.754001
1077.495329 1058.182245 -938.898948
1076.170095 1056.691357 -939.043896
1074.844862 1055.200470 -939.188843
1073.519628 1053.709582 -939.333791
1072.194395 1052.218694 -939.478738
1070.869161 1050.727806 -939.623685
1069.543928 1049.236919 -939.768633
1068.218694 1047.746031 -939.913580
1066.893461 1046.255143 -940.058528
1065.568227 1044.764255 -940.203475
1064.242993 1043.273368 -940.348423
1062.917760 1041.782480 -940.493370
1061.592526 1040.291592 -940.638317
1060.267293 1038.800704 -940.783265
1058.942059 1037.309817 -940.928212
1057.616826 1035.818929 -941.073160
1056.291592 1034.328041 -941.218107
1054.966359 1032.837153 -941.363055
1053.641125 1031.346266 -941.508002
1052.315891 1029.855378 -941.652949
1050.990658 1028.364490 -941.797897
1049.665424 1026.873602 -941.942844
1048.340191 1025.382715 -942.087792
1047.014957 1023.891827 -942.232739
1045.689724 1022.400939 -942.377686
1044.364490 1020.910051 -942.522634
1043.039257 1019.419164 -942.667581
1041.714023 1017.928276 -942.812529
1040.388789 1016.437388 -942.957476
1039.063556 1014.946500 -943.102424
1037.738322 1013.455613 -943.247371
1036.413089 1011.964725 -943.392318
1035.087855 1010.473837 -943.537266
1033.762622 1008.982949 -943.682213
1032.437388 1007.492062 -943.827161
1031.112155 1006.001174 -943.972108
1029.786921 1004.510286 -944.117056
1028.461687 1003.019398 -944.262003
1027.136454 1001.528511 -944.406950
1025.811220 1000.037623 -944.551898
1024.485987 998.546735 -944.696845
1023.160753 997.055847 -944.841793
1021.835520 995.564960 -944.986740
1020.510286 994.074072 -945.131687
1019.185053 992.583184 -945.276635
1017.859819 991.092296 -945.421582
1016.534585 989.601409 -945.566530
1015.209352 988.110521 -945.711477
1013.884118 986.619633 -945.856425
1012.558885 985.128745 -946.001372
1011.233651 983.637858 -946.146319
1009.908418 982.146970 -946.291267
1008.583184 980.656082 -946.436214
1007.257951 979.165194 -946.581162
1005.932717 977.674307 -946.726109
1004.607484 976.183419 -946.871056
1003.282250 974.692531 -947.016004
1001.957016 973.201643 -947.160951
1000.631783 971.710756 -947.305899
999.306549 970.219868 -947.450846
997.981316 968.728980 -947.595794
996.656082 967.238092 -947.740741
995.330849 965.747205 -947.885688
994.005615 964.256317 -948.030636
992.680382 962.765429 -948.175583
991.355148 961.274541 -948.320531
990.029914 959.783654 -948.465478
988.704681 958.292766 -948.610426
987.379447 956.801878 -948.755373
986.054214 955.310990 -948.900320
984.728980 953.820103 -949.045268
983.403747 952.329215 -949.190215
982.078513 950.838327 -949.335163
980.753280 949.347440 -949.480110
979.428046 947.856552 -949.625057
978.102812 946.365664 -949.770005
976.777579 944.874776 -949.914952
975.452345 943.383889 -950.059900
974.127112 941.893001 -950.204847
972.801878 940.402113 -950.349795
971.476645 938.911225 -950.494742
970.151411 937.420338 -950.639689
968.826178 935.929450 -950.784637
967.500944 934.438562 -950.929584
966.175710 932.947674 -951.074532
964.850477 931.456787 -951.219479
963.525243 929.965899 -951.364427
962.200010 928.475011 -951.509374
960.874776 926.984123 -951.654321
959.549543 925.493236 -951.799269
958.224309 924.002348 -951.944216
956.899076 922.511460 -952.089164
955.573842 921.020572 -952.234111
954.248608 919.529685 -952.379058
952.923375 918.038797 -952.524006
951.598141 916.547909 -952.668953
950.272908 915.057021 -952.813901
948.947674 913.566134 -952.958848
947.622441 912.075246 -953.103796
946.297207 910.584358 -953.248743
944.971974 909.093470 -953.393690
943.646740 907.602583 -953.538638
942.321507 906.111695 -953.683585
940.996273 904.620807 -953.828533
939.671039 903.129919 -953.973480
938.345806 901.639032 -954.118427
937.020572 900.148144 -954.263375
935.695339 898.657256 -954.408322
934.370105 897.166368 -954.553270
933.044872 895.675481 -954.698217
931.719638 894.184593 -954.843165
930.394405 892.693705 -954.988112
929.069171 891.202817 -955.133059
927.743937 889.711930 -955.278007
926.418704 888.221042 -955.422954
925.093470 886.730154 -955.567902
923.768237 885.239266 -955.712849
922.443003 883.748379 -955.857797
921.117770 882.257491 -956.002744
919.792536 880.766603 -956.147691
918.467303 879.275715 -956.292639
917.142069 877.784828 -956.437586
915.816835 876.293940 -956.582534
914.491602 874.803052 -956.727481
913.166368 873.312164 -956.872428
911.841135 871.821277 -957.017376
910.515901 870.330389 -957.162323
909.190668 868.839501 -957.307271
907.865434 867.348613 -957.452218
906.540201 865.857726 -957.597166
905.214967 864.366838 -957.742113
903.889733 862.875950 -957.887060
902.564500 861.385062 -958.032008
901.239266 859.894175 -958.176955
899.914033 858.403287 -958.321903
898.588799 856.912399 -958.466850
897.263566 855.421511 -958.611798
895.938332 853.930624 -958.756745
894.613099 852.439736 -958.901692
893.287865 850.948848 -959.046640
891.962631 849.457960 -959.191587
890.637398 847.967073 -959.336535
889.312164 846.476185 -959.481482
887.986931 844.985297 -959.626429
886.661697 843.494409 -959.771377
885.336464 842.003522 -959.916324
884.011230 840.512634 -960.061272
882.685997 839.021746 -960.206219
881.360763 837.530858 -960.351167
880.035530 836.039971 -960.496114
878.710296 834.549083 -960.641061
877.385062 833.058195 -960.786009
876.059829 831.567307 -960.930956
874.734595 830.076420 -961.075904
873.409362 828.585532 -961.220851
872.084128 827.094644 -961.365798
870.758895 825.603756 -961.510746
869.433661 824.112869 -961.655693
868.108428 822.621981 -961.800641
866.783194 821.131093 -961.945588
865.457960 819.640205 -962.090536
864.132727 818.149318 -962.235483
862.807493 816.658430 -962.380430
861.482260 815.167542 -962.525378
860.157026 813.676654 -962.670325
858.831793 812.185767 -962.815273
857.506559 810.694879 -962.960220
856.181326 809.203991 -963.105168
854.856092 807.713104 -963.250115
853.530858 806.222216 -963.395062
852.205625 804.731328 -963.540010
850.880391 803.240440 -963.684957
849.555158 801.749553 -963.829905
848.000000 800.000000 -964.000000
847.706903 798.021593 -964.000000
847.413805 796.043186 -964.000000
847.120708 794.064779 -964.000000
846.827611 792.086372 -964.000000
846.534513 790.107965 -964.000000
846.241416 788.129558 -964.000000
845.948319 786.151152 -964.000000
845.655221 784.172745 -964.000000
845.362124 782.194338 -964.000000
845.069027 780.215931 -964.000000
844.775929 778.237524 -964.000000
844.482832 776.259117 -964.000000
844.189735 774.280710 -964.000000
843.896637 772.302303 -964.000000
843.603540 770.323896 -964.000000
843.310443 768.345489 -964.000000
843.017346 766.367082 -964.000000
842.724248 764.388675 -964.000000
842.431151 762.410268 -964.000000
842.138054 760.431862 -964.000000
841.844956 758.453455 -964.000000
841.551859 756.475048 -964.000000
841.258762 754.496641 -964.000000
840.965664 752.518234 -964.000000
840.672567 750.539827 -964.000000
840.379470 748.561420 -964.000000
840.086372 746.583013 -964.000000
839.793275 744.604606 -964.000000
839.500178 742.626199 -964.000000
839.207080 740.647792 -964.000000
838.913983 738.669385 -964.000000
838.620886 736.690978 -964.000000
838.327788 734.712571 -964.000000
838.034691 732.734165 -964.000000
837.741594 730.755758 -964.000000
837.448496 728.777351 -964.000000
837.155399 726.798944 -964.000000
836.862302 724.820537 -964.000000
836.569204 722.842130 -964.000000
836.276107 720.863723 -964.000000
835.983010 718.885316 -964.000000
835.689912 716.906909 -964.000000
835.396815 714.928502 -964.000000
835.103718 712.950095 -964.000000
834.810621 710.971688 -964.000000
834.517523 708.993281 -964.000000
834.224426 707.014875 -964.000000
833.931329 705.036468 -964.000000
833.638231 703.058061 -964.000000
833.345134 701.079654 -964.000000
833.052037 699.101247 -964.000000
832.758939 697.122840 -964.000000
832.465842 695.144433 -964.000000
832.172745 693.166026 -964.000000
831.879647 691.187619 -964.000000
831.586550 689.209212 -964.000000
831.293453 687.230805 -964.000000
831.000355 685.252398 -964.000000
830.707258 683.273991 -964.000000
830.414161 681.295585 -964.000000
830.121063 679.317178 -964.000000
829.827966 677.338771 -964.000000
829.534869 675.360364 -964.000000
829.241771 673.381957 -964.000000
828.948674 671.403550 -964.000000
828.655577 669.425143 -964.000000
828.362479 667.446736 -964.000000
828.069382 665.468329 -964.000000
827.776285 663.489922 -964.000000
827.483187 661.511515 -964.000000
827.190090 659.533108 -964.000000
826.896993 657.554701 -964.000000
826.603895 655.576294 -964.000000
826.310798 653.597888 -964.000000
826.017701 651.619481 -964.000000
825.724604 649.641074 -964.000000
825.431506 647.662667 -964.000000
825.138409 645.684260 -964.000000
824.845312 643.705853 -964.000000
824.552214 641.727446 -964.000000
824.259117 639.749039 -964.000000
823.966020 637.770632 -964.000000
823.672922 635.792225 -964.000000
823.379825 633.813818 -964.000000
823.086728 631.835411 -964.000000
822.793630 629.857004 -964.000000
822.500533 627.878598 -964.000000
822.207436 625.900191 -964.000000
821.914338 623.921784 -964.000000
821.621241 621.943377 -964.000000
821.328144 619.964970 -964.000000
821.035046 617.986563 -964.000000
820.741949 616.008156 -964.000000
820.448852 614.029749 -964.000000
820.155754 612.051342 -964.000000
819.862657 610.072935 -964.000000
819.569560 608.094528 -964.000000
819.276462 606.116121 -964.000000
818.983365 604.137714 -964.000000
818.690268 602.159308 -964.000000
818.397170 600.180901 -964.000000
818.104073 598.202494 -964.000000
817.810976 596.224087 -964.000000
817.517878 594.245680 -964.000000
817.224781 592.267273 -964.000000
816.931684 590.288866 -964.000000
816.638587 588.310459 -964.000000
816.345489 586.332052 -964.000000
816.052392 584.353645 -964.000000
815.759295 582.375238 -964.000000
815.466197 580.396831 -964.000000
815.173100 578.418424 -964.000000
814.880003 576.440018 -964.000000
814.586905 574.461611 -964.000000
814.293808 572.483204 -964.000000
814.000711 570.504797 -964.000000
813.707613 568.526390 -964.000000
813.414516 566.547983 -964.000000
813.121419 564.569576 -964.000000
812.828321 562.591169 -964.000000
812.535224 560.612762 -964.000000
812.242127 558.634355 -964.000000
811.949029 556.655948 -964.000000
811.655932 554.677541 -964.000000
811.362835 552.699134 -964.000000
811.069737 550.720727 -964.000000
810.776640 548.742321 -964.000000
810.483543 546.763914 -964.000000
810.190445 544.785507 -964.000000
809.897348 542.807100 -964.000000
809.604251 540.828693 -964.000000
809.311153 538.850286 -964.000000
809.018056 536.871879 -964.000000
808.724959 534.893472 -964.000000
808.431862 532.915065 -964.000000
808.138764 530.936658 -964.000000
807.845667 528.958251 -964.000000
807.552570 526.979844 -964.000000
807.259472 525.001437 -964.000000
806.966375 523.023031 -964.000000
806.673278 521.044624 -964.000000
806.380180 519.066217 -964.000000
806.087083 517.087810 -964.000000
805.793986 515.109403 -964.000000
805.500888 513.130996 -964.000000
805.207791 511.152589 -964.000000
804.914694 509.174182 -964.000000
804.621596 507.195775 -964.000000
804.328499 505.217368 -964.000000
804.035402 503.238961 -964.000000
803.742304 501.260554 -964.000000
803.449207 499.282147 -964.000000
803.156110 497.303741 -964.000000
802.863012 495.325334 -964.000000
802.569915 493.346927 -964.000000
802.276818 491.368520 -964.000000
801.983720 489.390113 -964.000000
801.690623 487.411706 -964.000000
801.397526 485.433299 -964.000000
801.104428 483.454892 -964.000000
800.811331 481.476485 -964.000000
800.518234 479.498078 -964.000000
800.225136 477.519671 -964.000000
799.932039 475.541264 -964.000000
799.638942 473.562857 -964.000000
799.345845 471.584450 -964.000000
799.052747 469.606044 -964.000000
798.759650 467.627637 -964.000000
798.466553 465.649230 -964.000000
798.173455 463.670823 -964.000000
797.880358 461.692416 -964.000000
797.587261 459.714009 -964.000000
797.294163 457.735602 -964.000000
797.001066 455.757195 -964.000000
796.707969 453.778788 -964.000000
796.414871 451.800381 -964.000000
796.121774 449.821974 -964.000000
795.828677 447.843567 -964.000000
795.535579 445.865160 -964.000000
795.242482 443.886754 -964.000000
794.949385 441.908347 -964.000000
794.656287 439.929940 -964.000000
794.363190 437.951533 -964.000000
794.070093 435.973126 -964.000000
793.776995 433.994719 -964.000000
793.483898 432.016312 -964.000000
793.190801 430.037905 -964.000000
792.897703 428.059498 -964.000000
792.604606 426.081091 -964.000000
792.311509 424.102684 -964.000000
792.018411 422.124277 -964.000000
791.725314 420.145870 -964.000000
791.432217 418.167464 -964.000000
791.139119 416.189057 -964.000000
790.846022 414.210650 -964.000000
790.552925 412.232243 -964.000000
790.259828 410.253836 -964.000000
789.966730 408.275429 -964.000000
789.673633 406.297022 -964.000000
789.380536 404.318615 -964.000000
789.087438 402.340208 -964.000000
788.794341 400.361801 -964.000000
788.501244 398.383394 -964.000000
788.208146 396.404987 -964.000000
787.915049 394.426580 -964.000000
787.621952 392.448174 -964.000000
787.328854 390.469767 -964.000000
787.035757 388.491360 -964.000000
786.742660 386.512953 -964.000000
786.449562 384.534546 -964.000000
786.156465 382.556139 -964.000000
785.863368 380.577732 -964.000000
785.570270 378.599325 -964.000000
785.277173 376.620918 -964.000000
784.984076 374.642511 -964.000000
784.690978 372.664104 -964.000000
784.397881 370.685697 -964.000000
784.104784 368.707290 -964.000000
783.811686 366.728883 -964.000000
783.518589 364.750477 -964.000000
783.225492 362.772070 -964.000000
782.932394 360.793663 -964.000000
782.639297 358.815256 -964.000000
782.346200 356.836849 -964.000000
782.053103 354.858442 -964.000000
781.760005 352.880035 -964.000000
781.466908 350.901628 -964.000000
781.173811 348.923221 -964.000000
780.880713 346.944814 -964.000000
780.587616 344.966407 -964.000000
780.294519 342.988000 -964.000000
780.001421 341.009593 -964.000000
779.708324 339.031187 -964.000000
779.415227 337.052780 -964.000000
779.122129 335.074373 -964.000000
778.829032 333.095966 -964.000000
778.535935 331.117559 -964.000000
778.242837 329.139152 -964.000000
777.949740 327.160745 -964.000000
777.656643 325.182338 -964.000000
777.363545 323.203931 -964.000000
777.070448 321.225524 -964.000000
776.777351 319.247117 -964.000000
776.484253 317.268710 -964.000000
776.191156 315.290303 -964.000000
775.898059 313.311897 -964.000000
775.604961 311.333490 -964.000000
775.311864 309.355083 -964.000000
775.018767 307.376676 -964.000000
774.725669 305.398269 -964.000000
774.432572 303.419862 -964.000000
774.139475 301.441455 -964.000000
773.846377 299.463048 -964.000000
773.553280 297.484641 -964.000000
773.260183 295.506234 -964.000000
772.967086 293.527827 -964.000000
772.673988 291.549420 -964.000000
772.380891 289.571013 -964.000000
772.087794 287.592607 -964.000000
771.794696 285.614200 -964.000000
771.501599 283.635793 -964.000000
771.208502 281.657386 -964.000000
770.915404 279.678979 -964.000000
770.622307 277.700572 -964.000000
770.329210 275.722165 -964.000000
770.036112 273.743758 -964.000000
769.743015 271.765351 -964.000000
769.449918 269.786944 -964.000000
769.156820 267.808537 -964.000000
768.863723 265.830130 -964.000000
768.570626 263.851723 -964.000000
768.277528 261.873316 -964.000000
767.984431 259.894910 -964.000000
767.691334 257.916503 -964.000000
767.398236 255.938096 -964.000000
767.105139 253.959689 -964.000000
766.812042 251.981282 -964.000000
766.518944 250.002875 -964.000000
766.225847 248.024468 -964.000000
765.932750 246.046061 -964.000000
765.639652 244.067654 -964.000000
765.346555 242.089247 -964.000000
765.053458 240.110840 -964.000000
764.760361 238.132433 -964.000000
764.467263 236.154026 -964.000000
764.174166 234.175620 -964.000000
763.881069 232.197213 -964.000000
763.587971 230.218806 -964.000000
763.294874 228.240399 -964.000000
763.001777 226.261992 -964.000000
762.708679 224.283585 -964.000000
762.415582 222.305178 -964.000000
762.122485 220.326771 -964.000000
761.829387 218.348364 -964.000000
761.536290 216.369957 -964.000000
761.243193 214.391550 -964.000000
760.950095 212.413143 -964.000000
760.656998 210.434736 -964.000000
760.363901 208.456330 -964.000000
760.070803 206.477923 -964.000000
759.777706 204.499516 -964.000000
759.484609 202.521109 -964.000000
759.191511 200.542702 -964.000000
758.898414 198.564295 -964.000000
758.605317 196.585888 -964.000000
758.312219 194.607481 -964.000000
758.019122 192.629074 -964.000000
757.726025 190.650667 -964.000000
757.432927 188.672260 -964.000000
757.139830 186.693853 -964.000000
756.846733 184.715446 -964.000000
756.553635 182.737039 -964.000000
756.260538 180.758633 -964.000000
755.967441 178.780226 -964.000000
755.674344 176.801819 -964.000000
755.381246 174.823412 -964.000000
755.088149 172.845005 -964.000000
754.795052 170.866598 -964.000000
754.501954 168.888191 -964.000000
754.208857 166.909784 -964.000000
753.915760 164.931377 -964.000000
753.622662 162.952970 -964.000000
753.329565 160.974563 -964.000000
753.036468 158.996156 -964.000000
752.743370 157.017749 -964.000000
752.450273 155.039343 -964.000000
752.000000 152.000000 -964.000000
750.018015 151.732164 -964.000000
748.036030 151.464328 -964.000000
746.054045 151.196493 -964.000000
744.072061 150.928657 -964.000000
742.090076 150.660821 -964.000000
740.108091 150.392985 -964.000000
738.126106 150.125149 -964.000000
736.144121 149.857314 -964.000000
734.162136 149.589478 -964.000000
732.180151 149.321642 -964.000000
730.198167 149.053806 -964.000000
728.216182 148.785970 -964.000000
726.234197 148.518135 -964.000000
724.252212 148.250299 -964.000000
722.270227 147.982463 -964.000000
720.288242 147.714627 -964.000000
718.306257 147.446792 -964.000000
716.324273 147.178956 -964.000000
714.342288 146.911120 -964.000000
712.360303 146.643284 -964.000000
710.378318 146.375448 -964.000000
708.396333 146.107613 -964.000000
706.414348 145.839777 -964.000000
704.432363 145.571941 -964.000000
702.450378 145.304105 -964.000000
700.468394 145.036269 -964.000000
698.486409 144.768434 -964.000000
696.504424 144.500598 -964.000000
694.522439 144.232762 -964.000000
692.540454 143.964926 -964.000000
690.558469 143.697090 -964.000000
688.576484 143.429255 -964.000000
686.594500 143.161419 -964.000000
684.612515 142.893583 -964.000000
682.630530 142.625747 -964.000000
680.648545 142.357911 -964.000000
678.666560 142.090076 -964.000000
676.684575 141.822240 -964.000000
674.702590 141.554404 -964.000000
672.720606 141.286568 -964.000000
670.738621 141.018733 -964.000000
668.756636 140.750897 -964.000000
666.774651 140.483061 -964.000000
664.792666 140.215225 -964.000000
662.810681 139.947389 -964.000000
660.828696 139.679554 -964.000000
658.846712 139.411718 -964.000000
656.864727 139.143882 -964.000000
654.882742 138.876046 -964.000000
652.900757 138.608210 -964.000000
650.918772 138.340375 -964.000000
648.936787 138.072539 -964.000000
646.954802 137.804703 -964.000000
644.972818 137.536867 -964.000000
642.990833 137.269031 -964.000000
641.008848 137.001196 -964.000000
639.026863 136.733360 -964.000000
637.044878 136.465524 -964.000000
635.062893 136.197688 -964.000000
633.080908 135.929852 -964.000000
631.098923 135.662017 -964.000000
629.116939 135.394181 -964.000000
627.134954 135.126345 -964.000000
625.152969 134.858509 -964.000000
623.170984 134.590674 -964.000000
621.188999 134.322838 -964.000000
619.207014 134.055002 -964.000000
617.225029 133.787166 -964.000000
615.243045 133.519330 -964.000000
613.261060 133.251495 -964.000000
611.279075 132.983659 -964.000000
609.297090 132.715823 -964.000000
607.315105 132.447987 -964.000000
605.333120 132.180151 -964.000000
603.351135 131.912316 -964.000000
601.369151 131.644480 -964.000000
599.387166 131.376644 -964.000000
597.405181 131.108808 -964.000000
595.423196 130.840972 -964.000000
593.441211 130.573137 -964.000000
591.459226 130.305301 -964.000000
589.477241 130.037465 -964.000000
587.495257 129.769629 -964.000000
585.513272 129.501793 -964.000000
583.531287 129.233958 -964.000000
581.549302 128.966122 -964.000000
579.567317 128.698286 -964.000000
577.585332 128.430450 -964.000000
575.603347 128.162615 -964.000000
573.621363 127.894779 -964.000000
571.639378 127.626943 -964.000000
569.657393 127.359107 -964.000000
567.675408 127.091271 -964.000000
565.693423 126.823436 -964.000000
563.711438 126.555600 -964.000000
561.729453 126.287764 -964.000000
559.747469 126.019928 -964.000000
557.765484 125.752092 -964.000000
555.783499 125.484257 -964.000000
553.801514 125.216421 -964.000000
551.819529 124.948585 -964.000000
549.837544 124.680749 -964.000000
547.855559 124.412913 -964.000000
545.873574 124.145078 -964.000000
543.891590 123.877242 -964.000000
541.909605 123.609406 -964.000000
539.927620 123.341570 -964.000000
537.945635 123.073734 -964.000000
535.963650 122.805899 -964.000000
533.981665 122.538063 -964.000000
531.999680 122.270227 -964.000000
530.017696 122.002391 -964.000000
528.035711 121.734556 -964.000000
526.053726 121.466720 -964.000000
524.071741 121.198884 -964.000000
522.089756 120.931048 -964.000000
520.107771 120.663212 -964.000000
518.125786 120.395377 -964.000000
516.143802 120.127541 -964.000000
514.161817 119.859705 -964.000000
512.179832 119.591869 -964.000000
510.197847 119.324033 -964.000000
508.215862 119.056198 -964.000000
506.233877 118.788362 -964.000000
504.251892 118.520526 -964.000000
502.269908 118.252690 -964.000000
500.287923 117.984854 -964.000000
498.305938 117.717019 -964.000000
496.323953 117.449183 -964.000000
494.341968 117.181347 -964.000000
492.359983 116.913511 -964.000000
490.377998 116.645675 -964.000000
488.396014 116.377840 -964.000000
486.414029 116.110004 -964.000000
484.432044 115.842168 -964.000000
482.450059 115.574332 -964.000000
480.468074 115.306496 -964.000000
478.486089 115.038661 -964.000000
476.504104 114.770825 -964.000000
474.522119 114.502989 -964.000000
472.540135 114.235153 -964.000000
470.558150 113.967318 -964.000000
468.576165 113.699482 -964.000000
466.594180 113.431646 -964.000000
464.612195 113.163810 -964.000000
462.630210 112.895974 -964.000000
460.648225 112.628139 -964.000000
458.666241 112.360303 -964.000000
456.684256 112.092467 -964.000000
454.702271 111.824631 -964.000000
452.720286 111.556795 -964.000000
450.738301 111.288960 -964.000000
448.756316 111.021124 -964.000000
446.774331 110.753288 -964.000000
444.792347 110.485452 -964.000000
442.810362 110.217616 -964.000000
440.828377 109.949781 -964.000000
438.846392 109.681945 -964.000000
436.864407 109.414109 -964.000000
434.882422 109.146273 -964.000000
432.900437 108.878437 -964.000000
430.918453 108.610602 -964.000000
428.936468 108.342766 -964.000000
426.954483 108.074930 -964.000000
424.972498 107.807094 -964.000000
422.990513 107.539259 -964.000000
421.008528 107.271423 -964.000000
419.026543 107.003587 -964.000000
417.044559 106.735751 -964.000000
415.062574 106.467915 -964.000000
413.080589 106.200080 -964.000000
411.098604 105.932244 -964.000000
409.116619 105.664408 -964.000000
407.134634 105.396572 -964.000000
405.152649 105.128736 -964.000000
403.170664 104.860901 -964.000000
401.188680 104.593065 -964.000000
399.206695 104.325229 -964.000000
397.224710 104.057393 -964.000000
395.242725 103.789557 -964.000000
393.260740 103.521722 -964.000000
391.278755 103.253886 -964.000000
389.296770 102.986050 -964.000000
387.314786 102.718214 -964.000000
385.332801 102.450378 -964.000000
383.350816 102.182543 -964.000000
381.368831 101.914707 -964.000000
379.386846 101.646871 -964.000000
377.404861 101.379035 -964.000000
375.422876 101.111200 -964.000000
373.440892 100.843364 -964.000000
371.458907 100.575528 -964.000000
369.476922 100.307692 -964.000000
367.494937 100.039856 -964.000000
365.512952 99.772021 -964.000000
363.530967 99.504185 -964.000000
361.548982 99.236349 -964.000000
359.566998 98.968513 -964.000000
357.585013 98.700677 -964.000000
355.603028 98.432842 -964.000000
353.621043 98.165006 -964.000000
351.639058 97.897170 -964.000000
349.657073 97.629334 -964.000000
347.675088 97.361498 -964.000000
345.693104 97.093663 -964.000000
343.711119 96.825827 -964.000000
341.729134 96.557991 -964.000000
339.747149 96.290155 -964.000000
337.765164 96.022319 -964.000000
335.783179 95.754484 -964.000000
333.801194 95.486648 -964.000000
331.819210 95.218812 -964.000000
329.837225 94.950976 -964.000000
327.855240 94.683141 -964.000000
325.873255 94.415305 -964.000000
323.891270 94.147469 -964.000000
321.909285 93.879633 -964.000000
319.927300 93.611797 -964.000000
317.945315 93.343962 -964.000000
315.963331 93.076126 -964.000000
313.981346 92.808290 -964.000000
311.999361 92.540454 -964.000000
310.017376 92.272618 -964.000000
308.035391 92.004783 -964.000000
306.053406 91.736947 -964.000000
304.071421 91.469111 -964.000000
302.089437 91.201275 -964.000000
300.107452 90.933439 -964.000000
298.125467 90.665604 -964.000000
296.143482 90.397768 -964.000000
294.161497 90.129932 -964.000000
292.179512 89.862096 -964.000000
290.197527 89.594260 -964.000000
288.215543 89.326425 -964.000000
286.233558 89.058589 -964.000000
284.251573 88.790753 -964.000000
282.269588 88.522917 -964.000000
280.287603 88.255082 -964.000000
278.305618 87.987246 -964.000000
276.323633 87.719410 -964.000000
274.341649 87.451574 -964.000000
272.359664 87.183738 -964.000000
270.377679 86.915903 -964.000000
268.395694 86.648067 -964.000000
266.413709 86.380231 -964.000000
264.431724 86.112395 -964.000000
262.449739 85.844559 -964.000000
260.467755 85.576724 -964.000000
258.485770 85.308888 -964.000000
256.503785 85.041052 -964.000000
254.521800 84.773216 -964.000000
252.539815 84.505380 -964.000000
250.557830 84.237545 -964.000000
248.575845 83.969709 -964.000000
246.593860 83.701873 -964.000000
244.611876 83.434037 -964.000000
242.629891 83.166201 -964.000000
240.647906 82.898366 -964.000000
238.665921 82.630530 -964.000000
236.683936 82.362694 -964.000000
234.701951 82.094858 -964.000000
232.719966 81.827022 -964.000000
230.737982 81.559187 -964.000000
228.755997 81.291351 -964.000000
226.774012 81.023515 -964.000000
224.792027 80.755679 -964.000000
222.810042 80.487844 -964.000000
220.828057 80.220008 -964.000000
218.846072 79.952172 -964.000000
216.864088 79.684336 -964.000000
214.882103 79.416500 -964.000000
212.900118 79.148665 -964.000000
210.918133 78.880829 -964.000000
208.936148 78.612993 -964.000000
206.954163 78.345157 -964.000000
204.972178 78.077321 -964.000000
202.990194 77.809486 -964.000000
201.008209 77.541650 -964.000000
199.026224 77.273814 -964.000000
197.044239 77.005978 -964.000000
195.062254 76.738142 -964.000000
193.080269 76.470307 -964.000000
191.098284 76.202471 -964.000000
189.116300 75.934635 -964.000000
187.134315 75.666799 -964.000000
185.152330 75.398963 -964.000000
183.170345 75.131128 -964.000000
181.188360 74.863292 -964.000000
179.206375 74.595456 -964.000000
177.224390 74.327620 -964.000000
175.242406 74.059785 -964.000000
173.260421 73.791949 -964.000000
171.278436 73.524113 -964.000000
169.296451 73.256277 -964.000000
167.314466 72.988441 -964.000000
165.332481 72.720606 -964.000000
163.350496 72.452770 -964.000000
160.000000 72.000000 -964.000000
158.293436 70.957100 -964.000000
156.586873 69.914200 -964.000000
154.880309 68.871300 -964.000000
153.173745 67.828400 -964.000000
151.467182 66.785500 -964.000000
149.760618 65.742600 -964.000000
148.054054 64.699700 -964.000000
146.347491 63.656800 -964.000000
144.640927 62.613900 -964.000000
142.934363 61.571000 -964.000000
141.227800 60.528100 -964.000000
139.521236 59.485200 -964.000000
137.814672 58.442300 -964.000000
136.108109 57.399400 -964.000000
134.401545 56.356500 -964.000000
132.694981 55.313600 -964.000000
130.988418 54.270700 -964.000000
129.281854 53.227800 -964.000000
127.575290 52.184900 -964.000000
125.868727 51.142000 -964.000000
124.162163 50.099100 -964.000000
122.455599 49.056200 -964.000000
120.749036 48.013300 -964.000000
119.042472 46.970400 -964.000000
117.335908 45.927500 -964.000000
115.629345 44.884600 -964.000000
113.922781 43.841699 -964.000000
112.216217 42.798799 -964.000000
110.509654 41.755899 -964.000000
108.803090 40.712999 -964.000000
107.096526 39.670099 -964.000000
105.389963 38.627199 -964.000000
103.683399 37.584299 -964.000000
101.976835 36.541399 -964.000000
100.270272 35.498499 -964.000000
98.563708 34.455599 -964.000000
96.857144 33.412699 -964.000000
95.150581 32.369799 -964.000000
93.444017 31.326899 -964.000000
91.737453 30.283999 -964.000000
90.030890 29.241099 -964.000000
88.324326 28.198199 -964.000000
86.617762 27.155299 -964.000000
84.911199 26.112399 -964.000000
83.204635 25.069499 -964.000000
81.498071 24.026599 -964.000000
79.791508 22.983699 -964.000000
78.084944 21.940799 -964.000000
76.378380 20.897899 -964.000000
74.671817 19.854999 -964.000000
72.965253 18.812099 -964.000000
71.258689 17.769199 -964.000000
69.552126 16.726299 -964.000000
67.845562 15.683399 -964.000000
66.138998 14.640499 -964.000000
64.432435 13.597599 -964.000000
62.725871 12.554699 -964.000000
61.019307 11.511799 -964.000000
59.312744 10.468899 -964.000000
57.606180 9.425999 -964.000000
55.899616 8.383099 -964.000000
54.193053 7.340199 -964.000000
52.486489 6.297299 -964.000000
50.779925 5.254399 -964.000000
49.073362 4.211499 -964.000000
47.366798 3.168599 -964.000000
45.660234 2.125699 -964.000000
43.953671 1.082799 -964.000000
42.247107 0.039899 -964.000000
40.540543 -1.003001 -964.000000
38.833980 -2.045901 -964.000000
37.127416 -3.088801 -964.000000
35.420852 -4.131701 -964.000000
33.714289 -5.174601 -964.000000
32.007725 -6.217501 -964.000000
30.301161 -7.260401 -964.000000
28.594598 -8.303301 -964.000000
26.888034 -9.346201 -964.000000
25.181470 -10.389101 -964.000000
23.474907 -11.432002 -964.000000
21.768343 -12.474902 -964.000000
20.061779 -13.517802 -964.000000
18.355216 -14.560702 -964.000000
16.000000 -16.000000 -964.000000
14.378642 -17.170981 -964.000000
12.757283 -18.341962 -964.000000
11.135925 -19.512943 -964.000000
9.514566 -20.683924 -964.000000
7.893208 -21.854906 -964.000000
6.271849 -23.025887 -964.000000
4.650491 -24.196868 -964.000000
3.029132 -25.367849 -964.000000
1.407774 -26.538830 -964.000000
-0.213585 -27.709811 -964.000000
-1.834943 -28.880792 -964.000000
-3.456301 -30.051773 -964.000000
-5.077660 -31.222754 -964.000000
-6.699018 -32.393736 -964.000000
-8.320377 -33.564717 -964.000000
-9.941735 -34.735698 -964.000000
-11.563094 -35.906679 -964.000000
-13.184452 -37.077660 -964.000000
-14.805811 -38.248641 -964.000000
-16.427169 -39.419622 -964.000000
-18.048528 -40.590603 -964.000000
-19.669886 -41.761584 -964.000000
-21.291245 -42.932565 -964.000000
-22.912603 -44.103547 -964.000000
-24.533961 -45.274528 -964.000000
-26.155320 -46.445509 -964.000000
-27.776678 -47.616490 -964.000000
-29.398037 -48.787471 -964.000000
-31.019395 -49.958452 -964.000000
-32.640754 -51.129433 -964.000000
-34.262112 -52.300414 -964.000000
-35.883471 -53.471395 -964.000000
-37.504829 -54.642377 -964.000000
-39.126188 -55.813358 -964.000000
-40.747546 -56.984339 -964.000000
-42.368904 -58.155320 -964.000000
-43.990263 -59.326301 -964.000000
-45.611621 -60.497282 -964.000000
-47.232980 -61.668263 -964.000000
-48.854338 -62.839244 -964.000000
-50.475697 -64.010225 -964.000000
-52.097055 -65.181207 -964.000000
-53.718414 -66.352188 -964.000000
-55.339772 -67.523169 -964.000000
-56.961131 -68.694150 -964.000000
-58.582489 -69.865131 -964.000000
-60.203847 -71.036112 -964.000000
-61.825206 -72.207093 -964.000000
-63.446564 -73.378074 -964.000000
-65.067923 -74.549055 -964.000000
-66.689281 -75.720036 -964.000000
-68.310640 -76.891018 -964.000000
-69.931998 -78.061999 -964.000000
-71.553357 -79.232980 -964.000000
-73.174715 -80.403961 -964.000000
-74.796074 -81.574942 -964.000000
-76.417432 -82.745923 -964.000000
-78.038790 -83.916904 -964.000000
-79.660149 -85.087885 -964.000000
-81.281507 -86.258866 -964.000000
-82.902866 -87.429848 -964.000000
-84.524224 -88.600829 -964.000000
-86.145583 -89.771810 -964.000000
-87.766941 -90.942791 -964.000000
-89.388300 -92.113772 -964.000000
-91.009658 -93.284753 -964.000000
-92.631017 -94.455734 -964.000000
-94.252375 -95.626715 -964.000000
-95.873734 -96.797696 -964.000000
-97.495092 -97.968678 -964.000000
-99.116450 -99.139659 -964.000000
-100.737809 -100.310640 -964.000000
-102.359167 -101.481621 -964.000000
-103.980526 -102.652602 -964.000000
-105.601884 -103.823583 -964.000000
-107.223243 -104.994564 -964.000000
-108.844601 -106.165545 -964.000000
-110.465960 -107.336526 -964.000000
-112.087318 -108.507508 -964.000000
-113.708677 -109.678489 -964.000000
-115.330035 -110.849470 -964.000000
-116.951393 -112.020451 -964.000000
-118.572752 -113.191432 -964.000000
-120.194110 -114.362413 -964.000000
-121.815469 -115.533394 -964.000000
-123.436827 -116.704375 -964.000000
-125.058186 -117.875356 -964.000000
-128.000000 -120.000000 -964.000000
-128.948200 -121.760942 -964.000000
-129.896399 -123.521884 -964.000000
-130.844599 -125.282827 -964.000000
-131.792799 -127.043769 -964.000000
-132.740998 -128.804711 -964.000000
-133.689198 -130.565653 -964.000000
-134.637398 -132.326595 -964.000000
-135.585597 -134.087538 -964.000000
-136.533797 -135.848480 -964.000000
-137.481996 -137.609422 -964.000000
-138.430196 -139.370364 -964.000000
-139.378396 -141.131306 -964.000000
-140.326595 -142.892249 -964.000000
-141.274795 -144.653191 -964.000000
-142.222995 -146.414133 -964.000000
-143.171194 -148.175075 -964.000000
-144.119394 -149.936017 -964.000000
-145.067594 -151.696960 -964.000000
-146.015793 -153.457902 -964.000000
-146.963993 -155.218844 -964.000000
-147.912193 -156.979786 -964.000000
-148.860392 -158.740728 -964.000000
-149.808592 -160.501671 -964.000000
-150.756792 -162.262613 -964.000000
-151.704991 -164.023555 -964.000000
-152.653191 -165.784497 -964.000000
-153.601390 -167.545439 -964.000000
-154.549590 -169.306382 -964.000000
-155.497790 -171.067324 -964.000000
-156.445989 -172.828266 -964.000000
-157.394189 -174.589208 -964.000000
-158.342389 -176.350150 -964.000000
-159.290588 -178.111093 -964.000000
-160.238788 -179.872035 -964.000000
-161.186988 -181.632977 -964.000000
-162.135187 -183.393919 -964.000000
-163.083387 -185.154861 -964.000000
-164.031587 -186.915804 -964.000000
-164.979786 -188.676746 -964.000000
-165.927986 -190.437688 -964.000000
-166.876185 -192.198630 -964.000000
-167.824385 -193.959572 -964.000000
-168.772585 -195.720515 -964.000000
-169.720784 -197.481457 -964.000000
-170.668984 -199.242399 -964.000000
-171.617184 -201.003341 -964.000000
-172.565383 -202.764283 -964.000000
-173.513583 -204.525226 -964.000000
-174.461783 -206.286168 -964.000000
-175.409982 -208.047110 -964.000000
-176.358182 -209.808052 -964.000000
-177.306382 -211.568994 -964.000000
-178.254581 -213.329937 -964.000000
-179.202781 -215.090879 -964.000000
-180.150981 -216.851821 -964.000000
-181.099180 -218.612763 -964.000000
-182.047380 -220.373705 -964.000000
-182.995579 -222.134648 -964.000000
-184.000000 -224.000000 -964.000000
-184.387601 -225.065903 -962.352695
-184.775203 -226.131807 -960.705389
-185.162804 -227.197710 -959.058084
-185.550405 -228.263614 -957.410778
-185.938006 -229.329517 -955.763473
-186.325608 -230.395421 -954.116168
-186.713209 -231.461324 -952.468862
-187.100810 -232.527228 -950.821557
-187.488411 -233.593131 -949.174252
-187.876013 -234.659035 -947.526946
-188.263614 -235.724938 -945.879641
-188.651215 -236.790842 -944.232335
-189.038816 -237.856745 -942.585030
-189.426418 -238.922649 -940.937725
-189.814019 -239.988552 -939.290419
-190.201620 -241.054456 -937.643114
-190.589222 -242.120359 -935.995808
-190.976823 -243.186263 -934.348503
-191.364424 -244.252166 -932.701198
-191.752025 -245.318070 -931.053892
-192.139627 -246.383973 -929.406587
-192.527228 -247.449877 -927.759282
-192.914829 -248.515780 -926.111976
-193.302430 -249.581684 -924.464671
-193.690032 -250.647587 -922.817365
-194.077633 -251.713491 -921.170060
-194.465234 -252.779394 -919.522755
-194.852835 -253.845298 -917.875449
-195.240437 -254.911201 -916.228144
-195.628038 -255.977104 -914.580839
-196.015639 -257.043008 -912.933533
-196.403241 -258.108911 -911.286228
-196.790842 -259.174815 -909.638922
-197.178443 -260.240718 -907.991617
-197.566044 -261.306622 -906.344312
-197.953646 -262.372525 -904.697006
-198.341247 -263.438429 -903.049701
-198.728848 -264.504332 -901.402395
-199.116449 -265.570236 -899.755090
-199.504051 -266.636139 -898.107785
