418.875176 -1284.395834 -316.000000
417.634805 -1285.964745 -316.000000
416.394434 -1287.533655 -316.000000
415.154063 -1289.102565 -316.000000
413.913692 -1290.671476 -316.000000
412.673321 -1292.240386 -316.000000
411.432950 -1293.809296 -316.000000
410.192579 -1295.378207 -316.000000
408.952208 -1296.947117 -316.000000
407.711837 -1298.516027 -316.000000
406.471466 -1300.084938 -316.000000
405.231094 -1301.653848 -316.000000
403.990723 -1303.222758 -316.000000
402.750352 -1304.791669 -316.000000
401.509981 -1306.360579 -316.000000
400.269610 -1307.929489 -316.000000
399.029239 -1309.498400 -316.000000
397.788868 -1311.067310 -316.000000
396.548497 -1312.636220 -316.000000
395.308126 -1314.205131 -316.000000
394.067755 -1315.774041 -316.000000
392.827384 -1317.342951 -316.000000
391.587013 -1318.911862 -316.000000
390.346642 -1320.480772 -316.000000
389.106271 -1322.049682 -316.000000
387.865900 -1323.618593 -316.000000
386.625529 -1325.187503 -316.000000
385.385157 -1326.756413 -316.000000
384.144786 -1328.325324 -316.000000
382.904415 -1329.894234 -316.000000
381.664044 -1331.463144 -316.000000
380.423673 -1333.032055 -316.000000
379.183302 -1334.600965 -316.000000
377.942931 -1336.169875 -316.000000
376.702560 -1337.738786 -316.000000
375.462189 -1339.307696 -316.000000
374.221818 -1340.876606 -316.000000
372.981447 -1342.445517 -316.000000
371.741076 -1344.014427 -316.000000
370.500705 -1345.583337 -316.000000
369.260334 -1347.152248 -316.000000
368.019963 -1348.721158 -316.000000
366.779591 -1350.290068 -316.000000
365.539220 -1351.858978 -316.000000
364.298849 -1353.427889 -316.000000
363.058478 -1354.996799 -316.000000
361.818107 -1356.565709 -316.000000
360.577736 -1358.134620 -316.000000
359.337365 -1359.703530 -316.000000
358.096994 -1361.272440 -316.000000
356.856623 -1362.841351 -316.000000
355.616252 -1364.410261 -316.000000
354.375881 -1365.979171 -316.000000
353.135510 -1367.548082 -316.000000
351.895139 -1369.116992 -316.000000
349.727407 -1371.858895 -316.000000
351.726994 -1371.899537 -316.000000
353.726581 -1371.940179 -316.000000
355.726168 -1371.980820 -316.000000
357.725755 -1372.021462 -316.000000
359.725342 -1372.062104 -316.000000
361.724929 -1372.102746 -316.000000
363.724516 -1372.143387 -316.000000
365.724103 -1372.184029 -316.000000
367.723690 -1372.224671 -316.000000
369.723277 -1372.265313 -316.000000
371.722864 -1372.305954 -316.000000
373.722451 -1372.346596 -316.000000
375.722038 -1372.387238 -316.000000
377.721625 -1372.427879 -316.000000
379.721212 -1372.468521 -316.000000
381.720799 -1372.509163 -316.000000
383.720386 -1372.549805 -316.000000
385.719973 -1372.590446 -316.000000
387.719560 -1372.631088 -316.000000
389.719147 -1372.671730 -316.000000
391.718734 -1372.712372 -316.000000
393.718321 -1372.753013 -316.000000
395.717908 -1372.793655 -316.000000
397.717495 -1372.834297 -316.000000
399.717082 -1372.874938 -316.000000
401.716669 -1372.915580 -316.000000
403.716256 -1372.956222 -316.000000
405.715843 -1372.996864 -316.000000
407.715430 -1373.037505 -316.000000
409.715017 -1373.078147 -316.000000
411.714604 -1373.118789 -316.000000
413.714191 -1373.159430 -316.000000
415.713778 -1373.200072 -316.000000
417.713365 -1373.240714 -316.000000
419.712952 -1373.281356 -316.000000
421.712539 -1373.321997 -316.000000
423.712126 -1373.362639 -316.000000
425.711713 -1373.403281 -316.000000
427.711300 -1373.443923 -316.000000
429.710887 -1373.484564 -316.000000
431.710474 -1373.525206 -316.000000
433.710061 -1373.565848 -316.000000
435.709648 -1373.606489 -316.000000
437.709235 -1373.647131 -316.000000
439.708823 -1373.687773 -316.000000
441.708410 -1373.728415 -316.000000
443.707997 -1373.769056 -316.000000
445.707584 -1373.809698 -316.000000
447.707171 -1373.850340 -316.000000
449.706758 -1373.890982 -316.000000
451.706345 -1373.931623 -316.000000
453.705932 -1373.972265 -316.000000
455.705519 -1374.012907 -316.000000
457.705106 -1374.053548 -316.000000
459.704693 -1374.094190 -316.000000
461.704280 -1374.134832 -316.000000
463.703867 -1374.175474 -316.000000
465.703454 -1374.216115 -316.000000
467.703041 -1374.256757 -316.000000
469.702628 -1374.297399 -316.000000
471.702215 -1374.338041 -316.000000
473.701802 -1374.378682 -316.000000
475.701389 -1374.419324 -316.000000
477.700976 -1374.459966 -316.000000
479.700563 -1374.500607 -316.000000
481.700150 -1374.541249 -316.000000
483.699737 -1374.581891 -316.000000
485.699324 -1374.622533 -316.000000
487.698911 -1374.663174 -316.000000
489.698498 -1374.703816 -316.000000
491.698085 -1374.744458 -316.000000
493.697672 -1374.785099 -316.000000
495.697259 -1374.825741 -316.000000
497.696846 -1374.866383 -316.000000
499.696433 -1374.907025 -316.000000
501.696020 -1374.947666 -316.000000
503.695607 -1374.988308 -316.000000
505.695194 -1375.028950 -316.000000
507.694781 -1375.069592 -316.000000
509.694368 -1375.110233 -316.000000
511.693955 -1375.150875 -316.000000
513.693542 -1375.191517 -316.000000
515.693129 -1375.232158 -316.000000
517.692716 -1375.272800 -316.000000
519.692303 -1375.313442 -316.000000
521.691890 -1375.354084 -316.000000
523.691477 -1375.394725 -316.000000
525.691064 -1375.435367 -316.000000
527.690651 -1375.476009 -316.000000
529.690238 -1375.516651 -316.000000
531.689825 -1375.557292 -316.000000
533.689412 -1375.597934 -316.000000
535.688999 -1375.638576 -316.000000
537.688586 -1375.679217 -316.000000
539.688174 -1375.719859 -316.000000
541.687761 -1375.760501 -316.000000
543.687348 -1375.801143 -316.000000
545.686935 -1375.841784 -316.000000
547.686522 -1375.882426 -316.000000
550.000000 -1375.929448 -316.000000
551.897582 -1375.297640 -316.000000
553.795165 -1374.665832 -316.000000
555.692747 -1374.034025 -316.000000
557.590330 -1373.402217 -316.000000
559.487912 -1372.770409 -316.000000
561.385495 -1372.138601 -316.000000
563.283077 -1371.506794 -316.000000
565.180659 -1370.874986 -316.000000
567.078242 -1370.243178 -316.000000
568.975824 -1369.611371 -316.000000
570.873407 -1368.979563 -316.000000
572.770989 -1368.347755 -316.000000
574.668571 -1367.715948 -316.000000
576.566154 -1367.084140 -316.000000
578.463736 -1366.452332 -316.000000
580.361319 -1365.820525 -316.000000
582.258901 -1365.188717 -316.000000
584.156484 -1364.556909 -316.000000
586.054066 -1363.925101 -316.000000
587.951648 -1363.293294 -316.000000
589.849231 -1362.661486 -316.000000
591.746813 -1362.029678 -316.000000
593.644396 -1361.397871 -316.000000
595.541978 -1360.766063 -316.000000
597.439560 -1360.134255 -316.000000
599.337143 -1359.502448 -316.000000
601.234725 -1358.870640 -316.000000
603.132308 -1358.238832 -316.000000
605.029890 -1357.607025 -316.000000
606.927473 -1356.975217 -316.000000
608.825055 -1356.343409 -316.000000
610.722637 -1355.711601 -316.000000
612.620220 -1355.079794 -316.000000
614.517802 -1354.447986 -316.000000
616.415385 -1353.816178 -316.000000
618.312967 -1353.184371 -316.000000
620.210550 -1352.552563 -316.000000
622.108132 -1351.920755 -316.000000
624.005714 -1351.288948 -316.000000
625.903297 -1350.657140 -316.000000
627.800879 -1350.025332 -316.000000
629.698462 -1349.393524 -316.000000
631.596044 -1348.761717 -316.000000
633.493626 -1348.129909 -316.000000
635.391209 -1347.498101 -316.000000
637.288791 -1346.866294 -316.000000
639.186374 -1346.234486 -316.000000
641.083956 -1345.602678 -316.000000
642.981539 -1344.970871 -316.000000
644.879121 -1344.339063 -316.000000
646.776703 -1343.707255 -316.000000
648.674286 -1343.075448 -316.000000
650.571868 -1342.443640 -316.000000
652.469451 -1341.811832 -316.000000
654.367033 -1341.180024 -316.000000
656.264615 -1340.548217 -316.000000
658.162198 -1339.916409 -316.000000
660.059780 -1339.284601 -316.000000
661.957363 -1338.652794 -316.000000
663.854945 -1338.020986 -316.000000
665.752528 -1337.389178 -316.000000
667.650110 -1336.757371 -316.000000
669.547692 -1336.125563 -316.000000
671.445275 -1335.493755 -316.000000
673.342857 -1334.861948 -316.000000
675.240440 -1334.230140 -316.000000
677.138022 -1333.598332 -316.000000
679.035605 -1332.966524 -316.000000
680.933187 -1332.334717 -316.000000
682.830769 -1331.702909 -316.000000
684.728352 -1331.071101 -316.000000
686.625934 -1330.439294 -316.000000
688.523517 -1329.807486 -316.000000
690.421099 -1329.175678 -316.000000
692.318681 -1328.543871 -316.000000
694.216264 -1327.912063 -316.000000
696.113846 -1327.280255 -316.000000
698.011429 -1326.648448 -316.000000
699.909011 -1326.016640 -316.000000
701.806594 -1325.384832 -316.000000
703.704176 -1324.753024 -316.000000
705.601758 -1324.121217 -316.000000
707.499341 -1323.489409 -316.000000
709.396923 -1322.857601 -316.000000
711.294506 -1322.225794 -316.000000
713.192088 -1321.593986 -316.000000
715.089670 -1320.962178 -316.000000
716.987253 -1320.330371 -316.000000
718.884835 -1319.698563 -316.000000
720.782418 -1319.066755 -316.000000
722.680000 -1318.434947 -316.000000
724.577583 -1317.803140 -316.000000
726.475165 -1317.171332 -316.000000
728.372747 -1316.539524 -316.000000
730.270330 -1315.907717 -316.000000
732.167912 -1315.275909 -316.000000
734.065495 -1314.644101 -316.000000
736.000000 -1314.000000 -316.000000
736.590481 -1314.393654 -314.130142
737.180963 -1314.787309 -312.260284
737.771444 -1315.180963 -310.390427
738.361926 -1315.574617 -308.520569
738.952407 -1315.968271 -306.650711
739.542888 -1316.361926 -304.780853
740.133370 -1316.755580 -302.910996
740.723851 -1317.149234 -301.041138
741.314333 -1317.542888 -299.171280
741.904814 -1317.936543 -297.301422
742.495295 -1318.330197 -295.431565
743.085777 -1318.723851 -293.561707
743.676258 -1319.117505 -291.691849
744.266740 -1319.511160 -289.821991
744.857221 -1319.904814 -287.952134
745.447702 -1320.298468 -286.082276
746.038184 -1320.692123 -284.212418
746.628665 -1321.085777 -282.342560
747.219147 -1321.479431 -280.472703
747.809628 -1321.873085 -278.602845
748.400109 -1322.266740 -276.732987
748.990591 -1322.660394 -274.863129
749.581072 -1323.054048 -272.993272
750.171554 -1323.447702 -271.123414
750.762035 -1323.841357 -269.253556
751.352516 -1324.235011 -267.383698
751.942998 -1324.628665 -265.513841
752.533479 -1325.022319 -263.643983
753.123961 -1325.415974 -261.774125
753.714442 -1325.809628 -259.904267
754.304923 -1326.203282 -258.034409
754.895405 -1326.596936 -256.164552
755.485886 -1326.990591 -254.294694
756.076368 -1327.384245 -252.424836
756.666849 -1327.777899 -250.554978
757.257330 -1328.171554 -248.685121
757.847812 -1328.565208 -246.815263
758.438293 -1328.958862 -244.945405
759.028775 -1329.352516 -243.075547
760.000000 -1330.000000 -240.000000
760.690474 -1331.854644 -239.710965
761.380947 -1333.709288 -239.421929
762.071421 -1335.563932 -239.132894
762.761894 -1337.418576 -238.843858
763.452368 -1339.273221 -238.554823
764.142841 -1341.127865 -238.265787
764.833315 -1342.982509 -237.976752
765.523789 -1344.837153 -237.687716
766.214262 -1346.691797 -237.398681
766.904736 -1348.546441 -237.109646
767.595209 -1350.401085 -236.820610
768.285683 -1352.255729 -236.531575
768.976156 -1354.110373 -236.242539
769.666630 -1355.965018 -235.953504
770.357103 -1357.819662 -235.664468
771.047577 -1359.674306 -235.375433
771.738051 -1361.528950 -235.086397
772.428524 -1363.383594 -234.797362
773.118998 -1365.238238 -234.508327
773.809471 -1367.092882 -234.219291
774.499945 -1368.947526 -233.930256
775.190418 -1370.802170 -233.641220
775.880892 -1372.656814 -233.352185
776.571366 -1374.511459 -233.063149
777.261839 -1376.366103 -232.774114
777.952313 -1378.220747 -232.485078
778.642786 -1380.075391 -232.196043
779.333260 -1381.930035 -231.907008
780.023733 -1383.784679 -231.617972
780.714207 -1385.639323 -231.328937
781.404680 -1387.493967 -231.039901
782.095154 -1389.348611 -230.750866
782.785628 -1391.203256 -230.461830
783.476101 -1393.057900 -230.172795
784.166575 -1394.912544 -229.883759
784.857048 -1396.767188 -229.594724
785.547522 -1398.621832 -229.305689
786.237995 -1400.476476 -229.016653
786.928469 -1402.331120 -228.727618
787.618943 -1404.185764 -228.438582
788.309416 -1406.040408 -228.149547
788.999890 -1407.895053 -227.860511
789.690363 -1409.749697 -227.571476
790.380837 -1411.604341 -227.282440
791.071310 -1413.458985 -226.993405
791.761784 -1415.313629 -226.704370
792.452258 -1417.168273 -226.415334
793.142731 -1419.022917 -226.126299
793.833205 -1420.877561 -225.837263
794.523678 -1422.732205 -225.548228
795.214152 -1424.586850 -225.259192
795.904625 -1426.441494 -224.970157
796.595099 -1428.296138 -224.681121
797.285572 -1430.150782 -224.392086
797.976046 -1432.005426 -224.103051
798.666520 -1433.860070 -223.814015
799.356993 -1435.714714 -223.524980
800.047467 -1437.569358 -223.235944
800.737940 -1439.424002 -222.946909
801.428414 -1441.278646 -222.657873
802.118887 -1443.133291 -222.368838
802.809361 -1444.987935 -222.079802
803.499835 -1446.842579 -221.790767
804.190308 -1448.697223 -221.501731
804.880782 -1450.551867 -221.212696
805.571255 -1452.406511 -220.923661
806.261729 -1454.261155 -220.634625
806.952202 -1456.115799 -220.345590
807.642676 -1457.970443 -220.056554
808.333149 -1459.825088 -219.767519
809.023623 -1461.679732 -219.478483
809.714097 -1463.534376 -219.189448
810.404570 -1465.389020 -218.900412
811.095044 -1467.243664 -218.611377
811.785517 -1469.098308 -218.322342
812.475991 -1470.952952 -218.033306
813.166464 -1472.807596 -217.744271
813.856938 -1474.662240 -217.455235
814.547412 -1476.516885 -217.166200
815.237885 -1478.371529 -216.877164
815.928359 -1480.226173 -216.588129
816.618832 -1482.080817 -216.299093
817.309306 -1483.935461 -216.010058
817.999779 -1485.790105 -215.721023
818.690253 -1487.644749 -215.431987
819.380727 -1489.499393 -215.142952
820.071200 -1491.354037 -214.853916
820.761674 -1493.208682 -214.564881
821.452147 -1495.063326 -214.275845
822.142621 -1496.917970 -213.986810
822.833094 -1498.772614 -213.697774
823.523568 -1500.627258 -213.408739
824.214041 -1502.481902 -213.119704
824.904515 -1504.336546 -212.830668
825.594989 -1506.191190 -212.541633
826.285462 -1508.045834 -212.252597
826.975936 -1509.900479 -211.963562
827.666409 -1511.755123 -211.674526
828.356883 -1513.609767 -211.385491
829.047356 -1515.464411 -211.096455
829.737830 -1517.319055 -210.807420
830.428304 -1519.173699 -210.518385
831.118777 -1521.028343 -210.229349
831.809251 -1522.882987 -209.940314
832.499724 -1524.737631 -209.651278
833.190198 -1526.592275 -209.362243
833.880671 -1528.446920 -209.073207
834.571145 -1530.301564 -208.784172
835.261618 -1532.156208 -208.495136
835.952092 -1534.010852 -208.206101
836.642566 -1535.865496 -207.917066
837.333039 -1537.720140 -207.628030
838.023513 -1539.574784 -207.338995
838.713986 -1541.429428 -207.049959
839.404460 -1543.284072 -206.760924
840.094933 -1545.138717 -206.471888
840.785407 -1546.993361 -206.182853
841.475881 -1548.848005 -205.893817
842.166354 -1550.702649 -205.604782
842.856828 -1552.557293 -205.315747
843.547301 -1554.411937 -205.026711
844.237775 -1556.266581 -204.737676
844.928248 -1558.121225 -204.448640
845.618722 -1559.975869 -204.159605
846.309196 -1561.830514 -203.870569
846.999669 -1563.685158 -203.581534
847.690143 -1565.539802 -203.292498
848.380616 -1567.394446 -203.003463
849.071090 -1569.249090 -202.714428
849.761563 -1571.103734 -202.425392
850.452037 -1572.958378 -202.136357
851.142510 -1574.813022 -201.847321
851.832984 -1576.667666 -201.558286
852.523458 -1578.522311 -201.269250
853.213931 -1580.376955 -200.980215
853.904405 -1582.231599 -200.691179
854.594878 -1584.086243 -200.402144
855.285352 -1585.940887 -200.113109
855.975825 -1587.795531 -199.824073
856.666299 -1589.650175 -199.535038
857.356773 -1591.504819 -199.246002
858.047246 -1593.359463 -198.956967
858.737720 -1595.214107 -198.667931
859.428193 -1597.068752 -198.378896
860.118667 -1598.923396 -198.089860
860.809140 -1600.778040 -197.800825
861.499614 -1602.632684 -197.511790
862.190087 -1604.487328 -197.222754
862.880561 -1606.341972 -196.933719
863.571035 -1608.196616 -196.644683
864.261508 -1610.051260 -196.355648
864.951982 -1611.905904 -196.066612
865.642455 -1613.760549 -195.777577
866.332929 -1615.615193 -195.488541
867.023402 -1617.469837 -195.199506
867.713876 -1619.324481 -194.910471
868.404350 -1621.179125 -194.621435
869.094823 -1623.033769 -194.332400
869.785297 -1624.888413 -194.043364
870.475770 -1626.743057 -193.754329
871.166244 -1628.597701 -193.465293
871.856717 -1630.452346 -193.176258
872.547191 -1632.306990 -192.887222
873.237665 -1634.161634 -192.598187
873.928138 -1636.016278 -192.309152
874.618612 -1637.870922 -192.020116
875.309085 -1639.725566 -191.731081
875.999559 -1641.580210 -191.442045
876.690032 -1643.434854 -191.153010
877.380506 -1645.289498 -190.863974
878.070979 -1647.144143 -190.574939
878.761453 -1648.998787 -190.285903
879.451927 -1650.853431 -189.996868
880.142400 -1652.708075 -189.707832
880.832874 -1654.562719 -189.418797
881.523347 -1656.417363 -189.129762
882.213821 -1658.272007 -188.840726
882.904294 -1660.126651 -188.551691
883.594768 -1661.981295 -188.262655
884.285242 -1663.835939 -187.973620
884.975715 -1665.690584 -187.684584
885.666189 -1667.545228 -187.395549
886.356662 -1669.399872 -187.106513
887.047136 -1671.254516 -186.817478
887.737609 -1673.109160 -186.528443
888.428083 -1674.963804 -186.239407
889.118556 -1676.818448 -185.950372
889.809030 -1678.673092 -185.661336
890.499504 -1680.527736 -185.372301
891.189977 -1682.382381 -185.083265
891.880451 -1684.237025 -184.794230
892.570924 -1686.091669 -184.505194
893.261398 -1687.946313 -184.216159
893.951871 -1689.800957 -183.927124
894.642345 -1691.655601 -183.638088
895.332819 -1693.510245 -183.349053
896.023292 -1695.364889 -183.060017
896.713766 -1697.219533 -182.770982
897.404239 -1699.074178 -182.481946
898.094713 -1700.928822 -182.192911
898.785186 -1702.783466 -181.903875
899.475660 -1704.638110 -181.614840
900.166134 -1706.492754 -181.325805
900.856607 -1708.347398 -181.036769
901.547081 -1710.202042 -180.747734
902.237554 -1712.056686 -180.458698
902.928028 -1713.911330 -180.169663
903.618501 -1715.765975 -179.880627
904.308975 -1717.620619 -179.591592
904.999448 -1719.475263 -179.302556
905.689922 -1721.329907 -179.013521
906.380396 -1723.184551 -178.724486
907.070869 -1725.039195 -178.435450
907.761343 -1726.893839 -178.146415
908.451816 -1728.748483 -177.857379
909.142290 -1730.603127 -177.568344
909.832763 -1732.457772 -177.279308
910.523237 -1734.312416 -176.990273
911.213711 -1736.167060 -176.701237
911.904184 -1738.021704 -176.412202
912.594658 -1739.876348 -176.123167
913.285131 -1741.730992 -175.834131
913.975605 -1743.585636 -175.545096
914.666078 -1745.440280 -175.256060
915.356552 -1747.294924 -174.967025
916.047025 -1749.149568 -174.677989
916.737499 -1751.004213 -174.388954
917.427973 -1752.858857 -174.099918
918.118446 -1754.713501 -173.810883
918.808920 -1756.568145 -173.521848
919.499393 -1758.422789 -173.232812
920.189867 -1760.277433 -172.943777
920.880340 -1762.132077 -172.654741
921.570814 -1763.986721 -172.365706
922.261288 -1765.841365 -172.076670
922.951761 -1767.696010 -171.787635
923.642235 -1769.550654 -171.498599
924.332708 -1771.405298 -171.209564
925.023182 -1773.259942 -170.920529
925.713655 -1775.114586 -170.631493
926.404129 -1776.969230 -170.342458
927.094603 -1778.823874 -170.053422
927.785076 -1780.678518 -169.764387
928.475550 -1782.533162 -169.475351
929.166023 -1784.387807 -169.186316
929.856497 -1786.242451 -168.897280
930.546970 -1788.097095 -168.608245
931.237444 -1789.951739 -168.319210
932.000000 -1792.000000 -168.000000
930.682215 -1792.091939 -169.501662
929.364430 -1792.183877 -171.003324
928.046644 -1792.275816 -172.504987
926.728859 -1792.367754 -174.006649
925.411074 -1792.459693 -175.508311
924.093289 -1792.551631 -177.009973
922.775503 -1792.643570 -178.511636
921.457718 -1792.735508 -180.013298
920.139933 -1792.827447 -181.514960
918.822148 -1792.919385 -183.016622
917.504363 -1793.011324 -184.518284
916.186577 -1793.103262 -186.019947
914.868792 -1793.195201 -187.521609
913.551007 -1793.287139 -189.023271
912.233222 -1793.379078 -190.524933
910.915437 -1793.471016 -192.026596
909.597651 -1793.562955 -193.528258
908.279866 -1793.654893 -195.029920
906.962081 -1793.746832 -196.531582
905.644296 -1793.838770 -198.033244
904.326510 -1793.930709 -199.534907
903.008725 -1794.022647 -201.036569
901.690940 -1794.114586 -202.538231
900.373155 -1794.206524 -204.039893
899.055370 -1794.298463 -205.541556
897.737584 -1794.390401 -207.043218
896.419799 -1794.482340 -208.544880
895.102014 -1794.574278 -210.046542
893.784229 -1794.666217 -211.548204
892.466443 -1794.758155 -213.049867
891.148658 -1794.850094 -214.551529
889.830873 -1794.942032 -216.053191
888.513088 -1795.033971 -217.554853
887.195303 -1795.125909 -219.056516
885.877517 -1795.217848 -220.558178
884.559732 -1795.309786 -222.059840
883.241947 -1795.401725 -223.561502
881.924162 -1795.493663 -225.063165
880.606377 -1795.585602 -226.564827
879.288591 -1795.677540 -228.066489
877.970806 -1795.769479 -229.568151
876.653021 -1795.861417 -231.069813
875.335236 -1795.953356 -232.571476
874.017450 -1796.045294 -234.073138
872.699665 -1796.137233 -235.574800
871.381880 -1796.229171 -237.076462
870.064095 -1796.321110 -238.578125
868.746310 -1796.413048 -240.079787
867.428524 -1796.504987 -241.581449
866.110739 -1796.596925 -243.083111
864.792954 -1796.688864 -244.584773
863.475169 -1796.780802 -246.086436
862.157384 -1796.872741 -247.588098
860.839598 -1796.964679 -249.089760
859.521813 -1797.056618 -250.591422
858.204028 -1797.148556 -252.093085
856.886243 -1797.240495 -253.594747
855.568457 -1797.332433 -255.096409
854.250672 -1797.424372 -256.598071
852.932887 -1797.516310 -258.099733
851.615102 -1797.608249 -259.601396
850.297317 -1797.700187 -261.103058
848.979531 -1797.792126 -262.604720
847.661746 -1797.884064 -264.106382
846.343961 -1797.976003 -265.608045
845.026176 -1798.067941 -267.109707
843.708390 -1798.159880 -268.611369
842.390605 -1798.251818 -270.113031
841.072820 -1798.343757 -271.614693
839.755035 -1798.435695 -273.116356
838.437250 -1798.527634 -274.618018
837.119464 -1798.619572 -276.119680
835.801679 -1798.711511 -277.621342
834.483894 -1798.803449 -279.123005
833.166109 -1798.895388 -280.624667
831.848324 -1798.987326 -282.126329
830.530538 -1799.079265 -283.627991
829.212753 -1799.171203 -285.129653
827.894968 -1799.263142 -286.631316
826.577183 -1799.355080 -288.132978
825.259397 -1799.447019 -289.634640
823.941612 -1799.538957 -291.136302
822.623827 -1799.630896 -292.637965
821.306042 -1799.722834 -294.139627
819.988257 -1799.814773 -295.641289
818.670471 -1799.906711 -297.142951
817.352686 -1799.998650 -298.644613
816.034901 -1800.090588 -300.146276
814.717116 -1800.182527 -301.647938
813.399330 -1800.274465 -303.149600
812.081545 -1800.366404 -304.651262
810.763760 -1800.458342 -306.152925
809.445975 -1800.550281 -307.654587
808.128190 -1800.642219 -309.156249
806.810404 -1800.734158 -310.657911
805.492619 -1800.826096 -312.159573
804.174834 -1800.918035 -313.661236
802.857049 -1801.009973 -315.162898
801.539264 -1801.101912 -316.664560
800.221478 -1801.193850 -318.166222
798.903693 -1801.285789 -319.667885
797.585908 -1801.377727 -321.169547
796.268123 -1801.469666 -322.671209
794.950337 -1801.561604 -324.172871
793.632552 -1801.653543 -325.674533
792.314767 -1801.745481 -327.176196
790.996982 -1801.837420 -328.677858
789.679197 -1801.929358 -330.179520
788.361411 -1802.021297 -331.681182
787.043626 -1802.113235 -333.182845
785.725841 -1802.205174 -334.684507
784.408056 -1802.297112 -336.186169
783.090271 -1802.389051 -337.687831
781.772485 -1802.480989 -339.189494
780.454700 -1802.572928 -340.691156
779.136915 -1802.664866 -342.192818
777.819130 -1802.756805 -343.694480
776.501344 -1802.848743 -345.196142
775.183559 -1802.940682 -346.697805
773.865774 -1803.032620 -348.199467
772.547989 -1803.124559 -349.701129
771.230204 -1803.216497 -351.202791
769.912418 -1803.308436 -352.704454
768.594633 -1803.400374 -354.206116
767.276848 -1803.492313 -355.707778
765.959063 -1803.584251 -357.209440
764.641277 -1803.676190 -358.711102
763.323492 -1803.768128 -360.212765
762.005707 -1803.860067 -361.714427
760.000000 -1804.000000 -364.000000
758.005780 -1803.848059 -364.000000
756.011560 -1803.696119 -364.000000
754.017340 -1803.544178 -364.000000
752.023119 -1803.392238 -364.000000
750.028899 -1803.240297 -364.000000
748.034679 -1803.088356 -364.000000
746.040459 -1802.936416 -364.000000
744.046239 -1802.784475 -364.000000
742.052019 -1802.632535 -364.000000
740.057798 -1802.480594 -364.000000
738.063578 -1802.328654 -364.000000
736.069358 -1802.176713 -364.000000
734.075138 -1802.024772 -364.000000
732.080918 -1801.872832 -364.000000
730.086698 -1801.720891 -364.000000
728.092477 -1801.568951 -364.000000
726.098257 -1801.417010 -364.000000
724.104037 -1801.265069 -364.000000
722.109817 -1801.113129 -364.000000
720.115597 -1800.961188 -364.000000
718.121377 -1800.809248 -364.000000
716.127156 -1800.657307 -364.000000
714.132936 -1800.505367 -364.000000
712.138716 -1800.353426 -364.000000
710.144496 -1800.201485 -364.000000
708.150276 -1800.049545 -364.000000
706.156056 -1799.897604 -364.000000
704.161835 -1799.745664 -364.000000
702.167615 -1799.593723 -364.000000
700.173395 -1799.441782 -364.000000
698.179175 -1799.289842 -364.000000
696.184955 -1799.137901 -364.000000
694.190735 -1798.985961 -364.000000
692.196514 -1798.834020 -364.000000
690.202294 -1798.682080 -364.000000
688.208074 -1798.530139 -364.000000
686.213854 -1798.378198 -364.000000
684.219634 -1798.226258 -364.000000
682.225414 -1798.074317 -364.000000
680.231193 -1797.922377 -364.000000
678.236973 -1797.770436 -364.000000
676.242753 -1797.618495 -364.000000
674.248533 -1797.466555 -364.000000
672.254313 -1797.314614 -364.000000
670.260093 -1797.162674 -364.000000
668.265872 -1797.010733 -364.000000
666.271652 -1796.858793 -364.000000
664.277432 -1796.706852 -364.000000
662.283212 -1796.554911 -364.000000
660.288992 -1796.402971 -364.000000
658.294772 -1796.251030 -364.000000
656.300552 -1796.099090 -364.000000
654.306331 -1795.947149 -364.000000
652.312111 -1795.795208 -364.000000
650.317891 -1795.643268 -364.000000
648.323671 -1795.491327 -364.000000
646.329451 -1795.339387 -364.000000
644.335231 -1795.187446 -364.000000
642.341010 -1795.035506 -364.000000
640.346790 -1794.883565 -364.000000
638.352570 -1794.731624 -364.000000
636.358350 -1794.579684 -364.000000
634.364130 -1794.427743 -364.000000
632.369910 -1794.275803 -364.000000
630.375689 -1794.123862 -364.000000
628.381469 -1793.971921 -364.000000
626.387249 -1793.819981 -364.000000
624.393029 -1793.668040 -364.000000
622.398809 -1793.516100 -364.000000
620.404589 -1793.364159 -364.000000
618.410368 -1793.212219 -364.000000
616.416148 -1793.060278 -364.000000
614.421928 -1792.908337 -364.000000
612.427708 -1792.756397 -364.000000
610.433488 -1792.604456 -364.000000
608.439268 -1792.452516 -364.000000
606.445047 -1792.300575 -364.000000
604.450827 -1792.148634 -364.000000
602.456607 -1791.996694 -364.000000
600.462387 -1791.844753 -364.000000
598.468167 -1791.692813 -364.000000
596.473947 -1791.540872 -364.000000
594.479726 -1791.388932 -364.000000
592.485506 -1791.236991 -364.000000
590.491286 -1791.085050 -364.000000
588.497066 -1790.933110 -364.000000
586.502846 -1790.781169 -364.000000
584.508626 -1790.629229 -364.000000
582.514405 -1790.477288 -364.000000
580.520185 -1790.325347 -364.000000
578.525965 -1790.173407 -364.000000
576.531745 -1790.021466 -364.000000
574.537525 -1789.869526 -364.000000
572.543305 -1789.717585 -364.000000
570.549085 -1789.565645 -364.000000
568.554864 -1789.413704 -364.000000
566.560644 -1789.261763 -364.000000
564.566424 -1789.109823 -364.000000
562.572204 -1788.957882 -364.000000
560.577984 -1788.805942 -364.000000
558.583764 -1788.654001 -364.000000
556.589543 -1788.502060 -364.000000
554.595323 -1788.350120 -364.000000
552.601103 -1788.198179 -364.000000
550.000000 -1788.000000 -364.000000
548.000000 -1788.000000 -364.000000
546.000000 -1788.000000 -364.000000
544.000000 -1788.000000 -364.000000
542.000000 -1788.000000 -364.000000
540.000000 -1788.000000 -364.000000
538.000000 -1788.000000 -364.000000
536.000000 -1788.000000 -364.000000
534.000000 -1788.000000 -364.000000
532.000000 -1788.000000 -364.000000
530.000000 -1788.000000 -364.000000
528.000000 -1788.000000 -364.000000
526.000000 -1788.000000 -364.000000
524.000000 -1788.000000 -364.000000
522.000000 -1788.000000 -364.000000
520.000000 -1788.000000 -364.000000
518.000000 -1788.000000 -364.000000
516.000000 -1788.000000 -364.000000
514.000000 -1788.000000 -364.000000
512.000000 -1788.000000 -364.000000
510.000000 -1788.000000 -364.000000
508.000000 -1788.000000 -364.000000
506.000000 -1788.000000 -364.000000
504.000000 -1788.000000 -364.000000
502.000000 -1788.000000 -364.000000
500.000000 -1788.000000 -364.000000
498.000000 -1788.000000 -364.000000
496.000000 -1788.000000 -364.000000
494.000000 -1788.000000 -364.000000
492.000000 -1788.000000 -364.000000
490.000000 -1788.000000 -364.000000
488.000000 -1788.000000 -364.000000
486.000000 -1788.000000 -364.000000
484.000000 -1788.000000 -364.000000
482.000000 -1788.000000 -364.000000
480.000000 -1788.000000 -364.000000
478.000000 -1788.000000 -364.000000
476.000000 -1788.000000 -364.000000
474.000000 -1788.000000 -364.000000
472.000000 -1788.000000 -364.000000
470.000000 -1788.000000 -364.000000
468.000000 -1788.000000 -364.000000
466.000000 -1788.000000 -364.000000
464.000000 -1788.000000 -364.000000
462.000000 -1788.000000 -364.000000
460.000000 -1788.000000 -364.000000
458.000000 -1788.000000 -364.000000
456.000000 -1788.000000 -364.000000
454.000000 -1788.000000 -364.000000
452.000000 -1788.000000 -364.000000
450.000000 -1788.000000 -364.000000
448.000000 -1788.000000 -364.000000
446.000000 -1788.000000 -364.000000
444.000000 -1788.000000 -364.000000
442.000000 -1788.000000 -364.000000
440.000000 -1788.000000 -364.000000
438.000000 -1788.000000 -364.000000
436.000000 -1788.000000 -364.000000
434.000000 -1788.000000 -364.000000
432.000000 -1788.000000 -364.000000
430.000000 -1788.000000 -364.000000
428.000000 -1788.000000 -364.000000
426.000000 -1788.000000 -364.000000
424.000000 -1788.000000 -364.000000
422.000000 -1788.000000 -364.000000
420.000000 -1788.000000 -364.000000
418.000000 -1788.000000 -364.000000
416.000000 -1788.000000 -364.000000
414.000000 -1788.000000 -364.000000
412.000000 -1788.000000 -364.000000
410.000000 -1788.000000 -364.000000
408.000000 -1788.000000 -364.000000
406.000000 -1788.000000 -364.000000
404.000000 -1788.000000 -364.000000
402.000000 -1788.000000 -364.000000
400.000000 -1788.000000 -364.000000
398.000000 -1788.000000 -364.000000
396.000000 -1788.000000 -364.000000
394.000000 -1788.000000 -364.000000
392.000000 -1788.000000 -364.000000
390.000000 -1788.000000 -364.000000
388.000000 -1788.000000 -364.000000
386.000000 -1788.000000 -364.000000
384.000000 -1788.000000 -364.000000
382.000000 -1788.000000 -364.000000
380.000000 -1788.000000 -364.000000
378.000000 -1788.000000 -364.000000
376.000000 -1788.000000 -364.000000
374.000000 -1788.000000 -364.000000
372.000000 -1788.000000 -364.000000
370.000000 -1788.000000 -364.000000
368.000000 -1788.000000 -364.000000
366.000000 -1788.000000 -364.000000
364.000000 -1788.000000 -364.000000
362.000000 -1788.000000 -364.000000
360.000000 -1788.000000 -364.000000
358.000000 -1788.000000 -364.000000
356.000000 -1788.000000 -364.000000
354.000000 -1788.000000 -364.000000
352.000000 -1788.000000 -364.000000
350.000000 -1788.000000 -364.000000
348.000000 -1788.000000 -364.000000
346.000000 -1788.000000 -364.000000
344.000000 -1788.000000 -364.000000
342.000000 -1788.000000 -364.000000
340.000000 -1788.000000 -364.000000
338.000000 -1788.000000 -364.000000
336.000000 -1788.000000 -364.000000
334.000000 -1788.000000 -364.000000
332.000000 -1788.000000 -364.000000
330.000000 -1788.000000 -364.000000
328.000000 -1788.000000 -364.000000
326.000000 -1788.000000 -364.000000
324.000000 -1788.000000 -364.000000
322.000000 -1788.000000 -364.000000
320.000000 -1788.000000 -364.000000
318.000000 -1788.000000 -364.000000
316.000000 -1788.000000 -364.000000
314.000000 -1788.000000 -364.000000
312.000000 -1788.000000 -364.000000
310.000000 -1788.000000 -364.000000
308.000000 -1788.000000 -364.000000
306.000000 -1788.000000 -364.000000
304.000000 -1788.000000 -364.000000
302.000000 -1788.000000 -364.000000
300.000000 -1788.000000 -364.000000
298.000000 -1788.000000 -364.000000
296.000000 -1788.000000 -364.000000
294.000000 -1788.000000 -364.000000
292.000000 -1788.000000 -364.000000
290.000000 -1788.000000 -364.000000
288.000000 -1788.000000 -364.000000
286.000000 -1788.000000 -364.000000
284.000000 -1788.000000 -364.000000
282.000000 -1788.000000 -364.000000
280.000000 -1788.000000 -364.000000
278.000000 -1788.000000 -364.000000
276.000000 -1788.000000 -364.000000
274.000000 -1788.000000 -364.000000
272.000000 -1788.000000 -364.000000
270.000000 -1788.000000 -364.000000
268.000000 -1788.000000 -364.000000
266.000000 -1788.000000 -364.000000
264.000000 -1788.000000 -364.000000
262.000000 -1788.000000 -364.000000
260.000000 -1788.000000 -364.000000
258.000000 -1788.000000 -364.000000
256.000000 -1788.000000 -364.000000
254.000000 -1788.000000 -364.000000
252.000000 -1788.000000 -364.000000
250.000000 -1788.000000 -364.000000
248.000000 -1788.000000 -364.000000
246.000000 -1788.000000 -364.000000
244.000000 -1788.000000 -364.000000
242.000000 -1788.000000 -364.000000
240.000000 -1788.000000 -364.000000
238.000000 -1788.000000 -364.000000
236.000000 -1788.000000 -364.000000
234.000000 -1788.000000 -364.000000
232.000000 -1788.000000 -364.000000
230.000000 -1788.000000 -364.000000
228.000000 -1788.000000 -364.000000
226.000000 -1788.000000 -364.000000
224.000000 -1788.000000 -364.000000
222.000000 -1788.000000 -364.000000
220.000000 -1788.000000 -364.000000
218.000000 -1788.000000 -364.000000
216.000000 -1788.000000 -364.000000
214.000000 -1788.000000 -364.000000
212.000000 -1788.000000 -364.000000
210.000000 -1788.000000 -364.000000
208.000000 -1788.000000 -364.000000
204.000000 -1788.000000 -364.000000
202.000000 -1788.000000 -364.000000
200.000000 -1788.000000 -364.000000
198.000000 -1788.000000 -364.000000
196.000000 -1788.000000 -364.000000
194.000000 -1788.000000 -364.000000
192.000000 -1788.000000 -364.000000
190.000000 -1788.000000 -364.000000
188.000000 -1788.000000 -364.000000
186.000000 -1788.000000 -364.000000
184.000000 -1788.000000 -364.000000
182.000000 -1788.000000 -364.000000
180.000000 -1788.000000 -364.000000
178.000000 -1788.000000 -364.000000
176.000000 -1788.000000 -364.000000
174.000000 -1788.000000 -364.000000
172.000000 -1788.000000 -364.000000
170.000000 -1788.000000 -364.000000
168.000000 -1788.000000 -364.000000
166.000000 -1788.000000 -364.000000
164.000000 -1788.000000 -364.000000
162.000000 -1788.000000 -364.000000
160.000000 -1788.000000 -364.000000
158.000000 -1788.000000 -364.000000
156.000000 -1788.000000 -364.000000
154.000000 -1788.000000 -364.000000
152.000000 -1788.000000 -364.000000
150.000000 -1788.000000 -364.000000
148.000000 -1788.000000 -364.000000
146.000000 -1788.000000 -364.000000
144.000000 -1788.000000 -364.000000
142.000000 -1788.000000 -364.000000
140.000000 -1788.000000 -364.000000
138.000000 -1788.000000 -364.000000
136.000000 -1788.000000 -364.000000
134.000000 -1788.000000 -364.000000
132.000000 -1788.000000 -364.000000
130.000000 -1788.000000 -364.000000
128.000000 -1788.000000 -364.000000
126.000000 -1788.000000 -364.000000
124.000000 -1788.000000 -364.000000
122.000000 -1788.000000 -364.000000
120.000000 -1788.000000 -364.000000
118.000000 -1788.000000 -364.000000
116.000000 -1788.000000 -364.000000
114.000000 -1788.000000 -364.000000
112.000000 -1788.000000 -364.000000
110.000000 -1788.000000 -364.000000
108.000000 -1788.000000 -364.000000
106.000000 -1788.000000 -364.000000
104.000000 -1788.000000 -364.000000
102.000000 -1788.000000 -364.000000
100.000000 -1788.000000 -364.000000
98.000000 -1788.000000 -364.000000
96.000000 -1788.000000 -364.000000
94.000000 -1788.000000 -364.000000
92.000000 -1788.000000 -364.000000
90.000000 -1788.000000 -364.000000
88.000000 -1788.000000 -364.000000
86.000000 -1788.000000 -364.000000
84.000000 -1788.000000 -364.000000
82.000000 -1788.000000 -364.000000
80.000000 -1788.000000 -364.000000
78.000000 -1788.000000 -364.000000
76.000000 -1788.000000 -364.000000
74.000000 -1788.000000 -364.000000
72.000000 -1788.000000 -364.000000
70.000000 -1788.000000 -364.000000
68.000000 -1788.000000 -364.000000
66.000000 -1788.000000 -364.000000
64.000000 -1788.000000 -364.000000
62.000000 -1788.000000 -364.000000
60.000000 -1788.000000 -364.000000
58.000000 -1788.000000 -364.000000
56.000000 -1788.000000 -364.000000
54.000000 -1788.000000 -364.000000
52.000000 -1788.000000 -364.000000
50.000000 -1788.000000 -364.000000
48.000000 -1788.000000 -364.000000
46.000000 -1788.000000 -364.000000
44.000000 -1788.000000 -364.000000
42.000000 -1788.000000 -364.000000
40.000000 -1788.000000 -364.000000
38.000000 -1788.000000 -364.000000
36.000000 -1788.000000 -364.000000
34.000000 -1788.000000 -364.000000
32.000000 -1788.000000 -364.000000
30.000000 -1788.000000 -364.000000
28.000000 -1788.000000 -364.000000
26.000000 -1788.000000 -364.000000
24.000000 -1788.000000 -364.000000
22.000000 -1788.000000 -364.000000
20.000000 -1788.000000 -364.000000
18.000000 -1788.000000 -364.000000
16.000000 -1788.000000 -364.000000
14.000000 -1788.000000 -364.000000
12.000000 -1788.000000 -364.000000
10.000000 -1788.000000 -364.000000
8.000000 -1788.000000 -364.000000
6.000000 -1788.000000 -364.000000
4.000000 -1788.000000 -364.000000
2.000000 -1788.000000 -364.000000
0.000000 -1788.000000 -364.000000
-2.000000 -1788.000000 -364.000000
-4.000000 -1788.000000 -364.000000
-6.000000 -1788.000000 -364.000000
-8.000000 -1788.000000 -364.000000
-10.000000 -1788.000000 -364.000000
-12.000000 -1788.000000 -364.000000
-14.000000 -1788.000000 -364.000000
-16.000000 -1788.000000 -364.000000
-18.000000 -1788.000000 -364.000000
-20.000000 -1788.000000 -364.000000
-22.000000 -1788.000000 -364.000000
-24.000000 -1788.000000 -364.000000
-26.000000 -1788.000000 -364.000000
-28.000000 -1788.000000 -364.000000
-30.000000 -1788.000000 -364.000000
-32.000000 -1788.000000 -364.000000
-34.000000 -1788.000000 -364.000000
-36.000000 -1788.000000 -364.000000
-38.000000 -1788.000000 -364.000000
-40.000000 -1788.000000 -364.000000
-42.000000 -1788.000000 -364.000000
-44.000000 -1788.000000 -364.000000
-46.000000 -1788.000000 -364.000000
-48.000000 -1788.000000 -364.000000
-52.000000 -1788.000000 -364.000000
-54.000000 -1788.000000 -364.000000
-56.000000 -1788.000000 -364.000000
-58.000000 -1788.000000 -364.000000
-60.000000 -1788.000000 -364.000000
-62.000000 -1788.000000 -364.000000
-64.000000 -1788.000000 -364.000000
-66.000000 -1788.000000 -364.000000
-68.000000 -1788.000000 -364.000000
-70.000000 -1788.000000 -364.000000
-72.000000 -1788.000000 -364.000000
-74.000000 -1788.000000 -364.000000
-76.000000 -1788.000000 -364.000000
-78.000000 -1788.000000 -364.000000
-80.000000 -1788.000000 -364.000000
-82.000000 -1788.000000 -364.000000
-84.000000 -1788.000000 -364.000000
-86.000000 -1788.000000 -364.000000
-88.000000 -1788.000000 -364.000000
-90.000000 -1788.000000 -364.000000
-92.000000 -1788.000000 -364.000000
-94.000000 -1788.000000 -364.000000
-96.000000 -1788.000000 -364.000000
-98.000000 -1788.000000 -364.000000
-100.000000 -1788.000000 -364.000000
-102.000000 -1788.000000 -364.000000
-104.000000 -1788.000000 -364.000000
-106.000000 -1788.000000 -364.000000
-108.000000 -1788.000000 -364.000000
-110.000000 -1788.000000 -364.000000
-112.000000 -1788.000000 -364.000000
-114.000000 -1788.000000 -364.000000
-116.000000 -1788.000000 -364.000000
-118.000000 -1788.000000 -364.000000
-120.000000 -1788.000000 -364.000000
-122.000000 -1788.000000 -364.000000
-124.000000 -1788.000000 -364.000000
-126.000000 -1788.000000 -364.000000
-128.000000 -1788.000000 -364.000000
-130.000000 -1788.000000 -364.000000
-132.000000 -1788.000000 -364.000000
-134.000000 -1788.000000 -364.000000
-136.000000 -1788.000000 -364.000000
-138.000000 -1788.000000 -364.000000
-140.000000 -1788.000000 -364.000000
-142.000000 -1788.000000 -364.000000
-144.000000 -1788.000000 -364.000000
-146.000000 -1788.000000 -364.000000
-148.000000 -1788.000000 -364.000000
-150.000000 -1788.000000 -364.000000
-152.000000 -1788.000000 -364.000000
-154.000000 -1788.000000 -364.000000
-156.000000 -1788.000000 -364.000000
-158.000000 -1788.000000 -364.000000
-160.000000 -1788.000000 -364.000000
-162.000000 -1788.000000 -364.000000
-164.000000 -1788.000000 -364.000000
-166.000000 -1788.000000 -364.000000
-168.000000 -1788.000000 -364.000000
-170.000000 -1788.000000 -364.000000
-172.000000 -1788.000000 -364.000000
-174.000000 -1788.000000 -364.000000
-176.000000 -1788.000000 -364.000000
-178.000000 -1788.000000 -364.000000
-180.000000 -1788.000000 -364.000000
-182.000000 -1788.000000 -364.000000
-184.000000 -1788.000000 -364.000000
-186.000000 -1788.000000 -364.000000
-188.000000 -1788.000000 -364.000000
-190.000000 -1788.000000 -364.000000
-192.000000 -1788.000000 -364.000000
-194.000000 -1788.000000 -364.000000
-196.000000 -1788.000000 -364.000000
-198.000000 -1788.000000 -364.000000
-200.000000 -1788.000000 -364.000000
-202.000000 -1788.000000 -364.000000
-204.000000 -1788.000000 -364.000000
-206.000000 -1788.000000 -364.000000
-208.000000 -1788.000000 -364.000000
-210.000000 -1788.000000 -364.000000
-212.000000 -1788.000000 -364.000000
-214.000000 -1788.000000 -364.000000
-216.000000 -1788.000000 -364.000000
-218.000000 -1788.000000 -364.000000
-220.000000 -1788.000000 -364.000000
-222.000000 -1788.000000 -364.000000
-224.000000 -1788.000000 -364.000000
-226.000000 -1788.000000 -364.000000
-228.000000 -1788.000000 -364.000000
-230.000000 -1788.000000 -364.000000
-232.000000 -1788.000000 -364.000000
-234.000000 -1788.000000 -364.000000
-236.000000 -1788.000000 -364.000000
-238.000000 -1788.000000 -364.000000
-240.000000 -1788.000000 -364.000000
-242.000000 -1788.000000 -364.000000
-244.000000 -1788.000000 -364.000000
-246.000000 -1788.000000 -364.000000
-248.000000 -1788.000000 -364.000000
-250.000000 -1788.000000 -364.000000
-252.000000 -1788.000000 -364.000000
-254.000000 -1788.000000 -364.000000
-256.000000 -1788.000000 -364.000000
-258.000000 -1788.000000 -364.000000
-260.000000 -1788.000000 -364.000000
-262.000000 -1788.000000 -364.000000
-264.000000 -1788.000000 -364.000000
-266.000000 -1788.000000 -364.000000
-268.000000 -1788.000000 -364.000000
-270.000000 -1788.000000 -364.000000
-272.000000 -1788.000000 -364.000000
-274.000000 -1788.000000 -364.000000
-276.000000 -1788.000000 -364.000000
-278.000000 -1788.000000 -364.000000
-280.000000 -1788.000000 -364.000000
-282.000000 -1788.000000 -364.000000
-284.000000 -1788.000000 -364.000000
-286.000000 -1788.000000 -364.000000
-288.000000 -1788.000000 -364.000000
-290.000000 -1788.000000 -364.000000
-292.000000 -1788.000000 -364.000000
-294.000000 -1788.000000 -364.000000
-296.000000 -1788.000000 -364.000000
-298.000000 -1788.000000 -364.000000
-300.000000 -1788.000000 -364.000000
-302.000000 -1788.000000 -364.000000
-304.000000 -1788.000000 -364.000000
-306.000000 -1788.000000 -364.000000
-308.000000 -1788.000000 -364.000000
-310.000000 -1788.000000 -364.000000
-312.000000 -1788.000000 -364.000000
-314.000000 -1788.000000 -364.000000
-316.000000 -1788.000000 -364.000000
-318.000000 -1788.000000 -364.000000
-320.000000 -1788.000000 -364.000000
-322.000000 -1788.000000 -364.000000
-324.000000 -1788.000000 -364.000000
-326.000000 -1788.000000 -364.000000
-328.000000 -1788.000000 -364.000000
-330.000000 -1788.000000 -364.000000
-332.000000 -1788.000000 -364.000000
-334.000000 -1788.000000 -364.000000
-336.000000 -1788.000000 -364.000000
-338.000000 -1788.000000 -364.000000
-340.000000 -1788.000000 -364.000000
-342.000000 -1788.000000 -364.000000
-344.000000 -1788.000000 -364.000000
-346.000000 -1788.000000 -364.000000
-348.000000 -1788.000000 -364.000000
-350.000000 -1788.000000 -364.000000
-352.000000 -1788.000000 -364.000000
-354.000000 -1788.000000 -364.000000
-356.000000 -1788.000000 -364.000000
-358.000000 -1788.000000 -364.000000
-360.000000 -1788.000000 -364.000000
-362.000000 -1788.000000 -364.000000
-364.000000 -1788.000000 -364.000000
-366.000000 -1788.000000 -364.000000
-368.000000 -1788.000000 -364.000000
-370.000000 -1788.000000 -364.000000
-372.000000 -1788.000000 -364.000000
-374.000000 -1788.000000 -364.000000
-378.000000 -1788.000000 -364.000000
-380.000000 -1788.000000 -364.000000
-382.000000 -1788.000000 -364.000000
-384.000000 -1788.000000 -364.000000
-386.000000 -1788.000000 -364.000000
-388.000000 -1788.000000 -364.000000
-390.000000 -1788.000000 -364.000000
-392.000000 -1788.000000 -364.000000
-394.000000 -1788.000000 -364.000000
-396.000000 -1788.000000 -364.000000
-398.000000 -1788.000000 -364.000000
-400.000000 -1788.000000 -364.000000
-402.000000 -1788.000000 -364.000000
-404.000000 -1788.000000 -364.000000
-406.000000 -1788.000000 -364.000000
-408.000000 -1788.000000 -364.000000
-410.000000 -1788.000000 -364.000000
-412.000000 -1788.000000 -364.000000
-414.000000 -1788.000000 -364.000000
-416.000000 -1788.000000 -364.000000
-418.000000 -1788.000000 -364.000000
-420.000000 -1788.000000 -364.000000
-422.000000 -1788.000000 -364.000000
-424.000000 -1788.000000 -364.000000
-426.000000 -1788.000000 -364.000000
-428.000000 -1788.000000 -364.000000
-430.000000 -1788.000000 -364.000000
-432.000000 -1788.000000 -364.000000
-434.000000 -1788.000000 -364.000000
-436.000000 -1788.000000 -364.000000
-438.000000 -1788.000000 -364.000000
-440.000000 -1788.000000 -364.000000
-442.000000 -1788.000000 -364.000000
-444.000000 -1788.000000 -364.000000
-446.000000 -1788.000000 -364.000000
-448.000000 -1788.000000 -364.000000
-450.000000 -1788.000000 -364.000000
-452.000000 -1788.000000 -364.000000
-454.000000 -1788.000000 -364.000000
-456.000000 -1788.000000 -364.000000
-458.000000 -1788.000000 -364.000000
-460.000000 -1788.000000 -364.000000
-462.000000 -1788.000000 -364.000000
-464.000000 -1788.000000 -364.000000
-466.000000 -1788.000000 -364.000000
-468.000000 -1788.000000 -364.000000
-470.000000 -1788.000000 -364.000000
-472.000000 -1788.000000 -364.000000
-474.000000 -1788.000000 -364.000000
-476.000000 -1788.000000 -364.000000
-478.000000 -1788.000000 -364.000000
-480.000000 -1788.000000 -364.000000
-482.000000 -1788.000000 -364.000000
-484.000000 -1788.000000 -364.000000
-486.000000 -1788.000000 -364.000000
-488.000000 -1788.000000 -364.000000
-490.000000 -1788.000000 -364.000000
-492.000000 -1788.000000 -364.000000
-494.000000 -1788.000000 -364.000000
-496.000000 -1788.000000 -364.000000
-498.000000 -1788.000000 -364.000000
-500.000000 -1788.000000 -364.000000
-502.000000 -1788.000000 -364.000000
-504.000000 -1788.000000 -364.000000
-506.000000 -1788.000000 -364.000000
-508.000000 -1788.000000 -364.000000
-510.000000 -1788.000000 -364.000000
-512.000000 -1788.000000 -364.000000
-514.000000 -1788.000000 -364.000000
-516.000000 -1788.000000 -364.000000
-518.000000 -1788.000000 -364.000000
-520.000000 -1788.000000 -364.000000
-522.000000 -1788.000000 -364.000000
-524.000000 -1788.000000 -364.000000
-526.000000 -1788.000000 -364.000000
-528.000000 -1788.000000 -364.000000
-530.000000 -1788.000000 -364.000000
-532.000000 -1788.000000 -364.000000
-534.000000 -1788.000000 -364.000000
-536.000000 -1788.000000 -364.000000
-538.000000 -1788.000000 -364.000000
-540.000000 -1788.000000 -364.000000
-542.000000 -1788.000000 -364.000000
-544.000000 -1788.000000 -364.000000
-546.000000 -1788.000000 -364.000000
-548.000000 -1788.000000 -364.000000
-550.000000 -1788.000000 -364.000000
-552.000000 -1788.000000 -364.000000
-554.000000 -1788.000000 -364.000000
-556.000000 -1788.000000 -364.000000
